-156.750000 56.650000 47.789658
-153.200000 58.850000 47.788441
-150.400000 62.150000 47.787476
-163.550000 54.300000 47.787109
-152.900000 59.100000 47.782177
-157.550000 56.300000 47.764355
-154.200000 58.050000 47.759346
-148.900000 62.650000 47.758911
-152.350000 59.600000 47.758171
-149.150000 62.550000 47.756104
-155.500000 57.250000 47.753357
-162.400000 54.650000 47.751884
-158.150000 56.100000 47.749336
-159.300000 55.600000 47.739044
-156.650000 56.700000 47.738991
-156.350000 56.850000 47.734959
-152.200000 59.800000 47.732040
-149.850000 62.300000 47.728050
-151.950000 60.200000 47.727039
-151.300000 61.300000 47.724213
-160.550000 55.100000 47.713326
-158.300000 56.050000 47.708729
-150.050000 62.250000 47.707790
-156.550000 56.750000 47.704098
-156.450000 56.800000 47.702080
-157.050000 56.500000 47.701370
-150.700000 62.000000 47.692547
-162.900000 54.500000 47.691116
-152.650000 59.300000 47.687813
-164.700000 54.000000 47.677910
-154.800000 57.650000 47.670261
-160.400000 55.150000 47.658001
-166.600000 53.450000 47.648918
-155.100000 57.450000 47.646980
-151.500000 60.950000 47.646343
-153.250000 58.800000 47.643311
-152.100000 59.950000 47.639397
-166.350000 53.550000 47.632664
-155.600000 57.200000 47.619473
-162.000000 54.750000 47.618343
-149.500000 62.400000 47.612728
-153.950000 58.200000 47.607929
-153.750000 58.350000 47.604740
-160.700000 55.050000 47.603756
-149.650000 62.350000 47.598148
-151.100000 61.600000 47.595512
-164.250000 54.100000 47.590721
-149.250000 62.500000 47.586121
-165.150000 53.900000 47.584599
-148.700000 62.700000 47.583092
-165.550000 53.800000 47.561283
-151.200000 61.450000 47.550243
-152.950000 59.050000 47.534592
-163.700000 54.250000 47.532753
-157.400000 56.350000 47.524956
-151.700000 60.600000 47.522480
-162.200000 54.700000 47.518871
-153.300000 58.750000 47.517429
-165.900000 53.700000 47.512913
-150.500000 62.100000 47.504261
-159.400000 55.550000 47.499500
-152.300000 59.650000 47.499126
-164.050000 54.150000 47.498402
-157.150000 56.450000 47.494087
-151.350000 61.200000 47.490528
-160.000000 55.300000 47.490234
-154.100000 58.100000 47.479321
-151.850000 60.350000 47.476017
-152.700000 59.250000 47.475563
-155.700000 57.150000 47.474174
-161.750000 54.800000 47.473156
-165.350000 53.850000 47.473072
-161.500000 54.850000 47.464153
-150.600000 62.050000 47.464039
-161.050000 54.950000 47.446056
-151.550000 60.850000 47.438324
-160.250000 55.200000 47.436611
-158.550000 55.950000 47.432549
-163.050000 54.450000 47.428886
-154.350000 57.950000 47.420780
-164.450000 54.050000 47.414745
-154.650000 57.750000 47.412315
-166.950000 53.300000 47.411514
-153.350000 58.700000 47.407238
-159.750000 55.400000 47.404922
-152.000000 60.100000 47.404644
-162.550000 54.600000 47.402794
-149.350000 62.450000 47.395592
-166.700000 53.400000 47.393745
-166.200000 53.600000 47.386250
-150.200000 62.200000 47.384995
-149.000000 62.600000 47.373508
-149.800000 62.300000 47.371971
-153.800000 58.300000 47.357216
-150.000000 62.250000 47.350643
-166.050000 53.650000 47.348087
-155.800000 57.100000 47.333633
-160.850000 55.000000 47.328884
-155.000000 57.500000 47.320854
-161.250000 54.900000 47.314781
-151.050000 61.650000 47.310936
-150.750000 61.950000 47.310158
-153.400000 58.650000 47.308346
-153.000000 59.000000 47.304695
-154.500000 57.850000 47.280327
-151.400000 61.100000 47.278553
-148.650000 62.700000 47.278133
-166.800000 53.350000 47.269299
-150.350000 62.150000 47.268349
-154.850000 57.600000 47.267735
-157.800000 56.200000 47.251827
-152.150000 59.850000 47.245373
-152.750000 59.200000 47.240074
-148.850000 62.650000 47.239872
-151.250000 61.350000 47.239193
-164.900000 53.950000 47.235661
-151.750000 60.500000 47.227978
-153.450000 58.600000 47.215504
-163.200000 54.400000 47.212852
-151.600000 60.750000 47.209076
-155.900000 57.050000 47.207088
-157.650000 56.250000 47.199429
-149.600000 62.350000 47.188732
-159.500000 55.500000 47.187756
-157.250000 56.400000 47.185745
-157.950000 56.150000 47.183678
-163.850000 54.200000 47.171661
-152.250000 59.700000 47.166012
-151.900000 60.250000 47.151581
-151.150000 61.500000 47.147877
-149.100000 62.550000 47.146595
-154.000000 58.150000 47.136478
-149.450000 62.400000 47.133545
-154.250000 58.000000 47.128010
-155.250000 57.350000 47.125740
-153.500000 58.550000 47.122589
-162.700000 54.550000 47.113800
-155.350000 57.300000 47.108353
-156.000000 57.000000 47.097721
-153.050000 58.950000 47.095703
-151.000000 61.700000 47.091103
-158.650000 55.900000 47.090981
-152.050000 60.000000 47.077824
-151.450000 61.000000 47.073986
-160.100000 55.250000 47.065681
-150.800000 61.900000 47.053490
-153.850000 58.250000 47.052391
-161.950000 54.750000 47.050327
-163.350000 54.350000 47.045311
-148.600000 62.700000 47.042511
-157.500000 56.300000 47.040695
-158.100000 56.100000 47.033558
-164.650000 54.000000 47.033211
-165.700000 53.750000 47.030827
-155.150000 57.400000 47.030067
-153.550000 58.500000 47.022526
-149.750000 62.300000 47.015671
-154.700000 57.700000 47.013622
-155.450000 57.250000 47.010098
-149.950000 62.250000 47.007645
-160.500000 55.100000 47.007008
-156.100000 56.950000 47.004890
-158.400000 56.000000 47.001717
-149.200000 62.500000 46.996384
-152.800000 59.150000 46.994144
-150.150000 62.200000 46.988918
-159.850000 55.350000 46.986446
-162.350000 54.650000 46.983974
-161.700000 54.800000 46.981392
-161.450000 54.850000 46.978081
-151.300000 61.250000 46.977123
-166.450000 53.500000 46.969971
-156.900000 56.550000 46.953289
-151.650000 60.650000 46.953247
-156.800000 56.600000 46.950474
-160.650000 55.050000 46.947765
-150.950000 61.750000 46.944641
-156.200000 56.900000 46.927643
-158.250000 56.050000 46.917629
-150.850000 61.850000 46.914272
-151.800000 60.400000 46.914017
-153.100000 58.900000 46.908993
-150.450000 62.100000 46.907532
-153.600000 58.450000 46.907272
-165.100000 53.900000 46.907188
-156.700000 56.650000 46.906334
-150.650000 62.000000 46.906277
-160.350000 55.150000 46.898052
-161.000000 54.950000 46.886391
-158.750000 55.850000 46.882397
-150.900000 61.800000 46.881874
-148.550000 62.700000 46.880245
-163.500000 54.300000 46.880207
-157.000000 56.500000 46.879753
-154.150000 58.050000 46.879402
-156.300000 56.850000 46.868172
-151.500000 60.900000 46.864670
-155.550000 57.200000 46.863316
-156.600000 56.700000 46.856941
-152.450000 59.450000 46.855106
-162.150000 54.700000 46.853901
-154.900000 57.550000 46.852310
-149.300000 62.450000 46.847851
-164.200000 54.100000 46.841263
-162.850000 54.500000 46.835468
-152.500000 59.400000 46.833317
-154.400000 57.900000 46.833275
-156.400000 56.800000 46.832771
-151.950000 60.150000 46.830772
-156.500000 56.750000 46.828609
-159.600000 55.450000 46.824921
-152.400000 59.500000 46.802593
-154.550000 57.800000 46.800167
-161.200000 54.900000 46.798599
-148.950000 62.600000 46.796200
-155.050000 57.450000 46.795837
-148.500000 62.700000 46.794197
-151.200000 61.400000 46.793774
-151.100000 61.550000 46.792915
-165.500000 53.800000 46.792194
-166.900000 53.300000 46.792061
-157.350000 56.350000 46.790798
-150.300000 62.150000 46.790634
-148.450000 62.700000 46.785984
-150.550000 62.050000 46.776379
-158.850000 55.800000 46.772274
-149.550000 62.350000 46.769043
-152.200000 59.750000 46.768860
-153.650000 58.400000 46.767857
-148.800000 62.650000 46.765465
-165.300000 53.850000 46.753975
-152.850000 59.100000 46.748608
-152.550000 59.350000 46.745682
-153.150000 58.850000 46.744457
-151.350000 61.150000 46.744415
-164.400000 54.050000 46.728161
-152.100000 59.900000 46.726704
-160.800000 55.000000 46.721710
-158.950000 55.750000 46.718956
-157.100000 56.450000 46.707180
-155.650000 57.150000 46.696320
-164.000000 54.150000 46.695637
-153.900000 58.200000 46.684944
-159.050000 55.700000 46.681541
-149.900000 62.250000 46.675190
-152.350000 59.550000 46.671150
-151.700000 60.550000 46.670246
-149.700000 62.300000 46.656258
-163.650000 54.250000 46.655518
-149.400000 62.400000 46.641403
-165.850000 53.700000 46.640972
-151.550000 60.800000 46.640499
-154.750000 57.650000 46.636372
-159.150000 55.650000 46.624298
-160.200000 55.200000 46.622963
-150.100000 62.200000 46.619366
-154.050000 58.100000 46.607861
-152.600000 59.300000 46.603588
-153.200000 58.800000 46.600792
-164.850000 53.950000 46.598278
-153.700000 58.350000 46.594673
-162.500000 54.600000 46.592278
-151.850000 60.300000 46.591145
-159.950000 55.300000 46.590950
-166.300000 53.550000 46.575104
-163.000000 54.450000 46.564804
-157.750000 56.200000 46.563515
-149.050000 62.550000 46.545868
-155.750000 57.100000 46.531143
-151.400000 61.050000 46.526314
-159.250000 55.600000 46.519180
-161.900000 54.750000 46.514214
-152.000000 60.050000 46.513767
-152.900000 59.050000 46.511929
-157.900000 56.150000 46.508785
-154.300000 57.950000 46.504608
-161.650000 54.800000 46.504448
-151.250000 61.300000 46.499584
-161.400000 54.850000 46.496311
-157.600000 56.250000 46.495724
-151.050000 61.600000 46.489155
-150.700000 61.950000 46.478828
-153.250000 58.750000 46.475712
-152.300000 59.600000 46.460495
-166.550000 53.450000 46.452690
-159.700000 55.400000 46.440498
-157.200000 56.400000 46.431084
-158.500000 55.950000 46.424782
-166.000000 53.650000 46.420822
-152.650000 59.250000 46.420132
-154.950000 57.500000 46.412556
-149.150000 62.500000 46.404499
-166.150000 53.600000 46.395901
-151.600000 60.700000 46.394169
-164.600000 54.000000 46.393375
-151.150000 61.450000 46.389397
-155.850000 57.050000 46.382359
-155.300000 57.300000 46.380634
-153.750000 58.300000 46.378040
-155.200000 57.350000 46.369614
-154.600000 57.750000 46.368000
-153.300000 58.700000 46.366093
-151.750000 60.450000 46.364655
-150.400000 62.100000 46.358582
-150.250000 62.150000 46.351318
-149.850000 62.250000 46.349781
-158.050000 56.100000 46.349571
-159.350000 55.550000 46.348625
-148.750000 62.650000 46.342533
-149.500000 62.350000 46.337547
-163.800000 54.200000 46.332863
-163.150000 54.400000 46.332230
-160.950000 54.950000 46.327278
-157.450000 56.300000 46.326015
-152.150000 59.800000 46.320049
-151.450000 60.950000 46.310646
-160.450000 55.100000 46.301075
-160.600000 55.050000 46.292652
-155.400000 57.250000 46.292442
-149.650000 62.300000 46.291077
-149.250000 62.450000 46.290710
-154.450000 57.850000 46.290279
-152.950000 59.000000 46.290134
-162.650000 54.550000 46.284683
-161.150000 54.900000 46.283646
-150.050000 62.200000 46.272640
-151.900000 60.200000 46.269669
-153.350000 58.650000 46.268085
-154.800000 57.600000 46.267197
-154.200000 58.000000 46.258545
-155.950000 57.000000 46.256901
-162.300000 54.650000 46.255112
-153.950000 58.150000 46.253407
-165.050000 53.900000 46.249783
-148.900000 62.600000 46.248047
-151.300000 61.200000 46.242470
-151.000000 61.650000 46.242031
-165.650000 53.750000 46.233429
-162.100000 54.700000 46.229561
-155.100000 57.400000 46.228817
-152.700000 59.200000 46.208843
-160.050000 55.250000 46.207165
-152.050000 59.950000 46.189198
-158.200000 56.050000 46.178570
-150.750000 61.900000 46.178249
-153.400000 58.600000 46.177124
-150.600000 62.000000 46.174957
-152.250000 59.650000 46.174667
-156.050000 56.950000 46.155418
-163.300000 54.350000 46.152500
-158.350000 56.000000 46.150894
-150.500000 62.050000 46.140953
-155.500000 57.200000 46.139309
-160.300000 55.150000 46.138386
-149.350000 62.400000 46.136398
-166.650000 53.400000 46.123993
-151.650000 60.600000 46.122349
-160.750000 55.000000 46.115269
-153.800000 58.250000 46.109058
-159.450000 55.500000 46.108971
-156.850000 56.550000 46.103825
-164.150000 54.100000 46.094044
-153.450000 58.550000 46.087929
-153.000000 58.950000 46.087021
-151.500000 60.850000 46.086941
-156.750000 56.600000 46.084160
-156.150000 56.900000 46.075443
-157.300000 56.350000 46.062572
-159.800000 55.350000 46.061413
-165.250000 53.850000 46.059601
-151.200000 61.350000 46.059250
-150.950000 61.700000 46.058971
-156.950000 56.500000 46.058277
-165.450000 53.800000 46.050987
-151.800000 60.350000 46.045383
-164.350000 54.050000 46.041569
-161.600000 54.800000 46.039162
-156.650000 56.650000 46.035252
-154.100000 58.050000 46.033268
-149.800000 62.250000 46.028046
-151.100000 61.500000 46.027782
-161.350000 54.850000 46.017780
-156.250000 56.850000 46.015549
-151.350000 61.100000 46.006561
-161.850000 54.750000 46.006241
-162.800000 54.500000 46.002644
-150.800000 61.850000 45.997040
-158.600000 55.900000 45.996769
-153.500000 58.500000 45.994404
-163.450000 54.300000 45.992962
-166.750000 53.350000 45.989876
-156.550000 56.700000 45.989841
-152.750000 59.150000 45.982525
-156.350000 56.800000 45.978161
-148.700000 62.650000 45.977608
-154.650000 57.700000 45.977028
-164.800000 53.950000 45.972824
-156.450000 56.750000 45.968609
-149.000000 62.550000 45.959423
-151.950000 60.100000 45.955250
-155.600000 57.150000 45.953922
-150.900000 61.750000 45.949482
-150.200000 62.150000 45.947147
-150.000000 62.200000 45.945007
-155.000000 57.450000 45.938667
-150.850000 61.800000 45.924782
-157.050000 56.450000 45.919910
-149.600000 62.300000 45.917751
-154.350000 57.900000 45.906944
-153.050000 58.900000 45.904453
-163.950000 54.150000 45.900593
-149.450000 62.350000 45.893127
-154.850000 57.550000 45.892307
-153.550000 58.450000 45.889549
-157.700000 56.200000 45.884468
-166.400000 53.500000 45.882252
-150.350000 62.100000 45.855068
-157.850000 56.150000 45.847553
-151.550000 60.750000 45.846703
-152.100000 59.850000 45.833046
-151.700000 60.500000 45.826542
-152.200000 59.700000 45.821526
-166.850000 53.300000 45.814919
-149.100000 62.500000 45.814415
-162.450000 54.600000 45.813705
-159.550000 55.450000 45.812042
-160.150000 55.200000 45.811787
-165.800000 53.700000 45.805443
-157.550000 56.250000 45.800827
-154.500000 57.800000 45.798576
-163.600000 54.250000 45.792908
-153.850000 58.200000 45.780769
-151.400000 61.000000 45.779701
-151.250000 61.250000 45.774662
-161.100000 54.900000 45.769703
-160.900000 54.950000 45.768684
-153.600000 58.400000 45.765385
-155.700000 57.100000 45.763943
-154.000000 58.100000 45.761051
-164.550000 54.000000 45.757332
-152.800000 59.100000 45.752354
-153.100000 58.850000 45.742714
-148.850000 62.600000 45.736000
-162.950000 54.450000 45.726997
-149.200000 62.450000 45.726425
-151.850000 60.250000 45.723351
-158.700000 55.850000 45.711514
-151.050000 61.550000 45.711491
-152.450000 59.400000 45.709175
-149.750000 62.250000 45.706776
-150.650000 61.950000 45.703087
-159.900000 55.300000 45.701271
-152.400000 59.450000 45.693794
-158.000000 56.100000 45.691078
-157.150000 56.400000 45.677849
-148.650000 62.650000 45.676701
-155.250000 57.300000 45.664173
-152.500000 59.350000 45.657658
-151.150000 61.400000 45.657040
-152.000000 60.000000 45.644341
-162.050000 54.700000 45.644077
-160.550000 55.050000 45.638256
-154.250000 57.950000 45.635883
-149.950000 62.200000 45.632717
-149.300000 62.400000 45.619205
-157.400000 56.300000 45.619122
-154.700000 57.650000 45.616562
-155.150000 57.350000 45.615520
-153.650000 58.350000 45.613049
-165.000000 53.900000 45.610630
-152.350000 59.500000 45.604862
-153.150000 58.800000 45.600845
-155.350000 57.250000 45.595531
-160.400000 55.100000 45.595337
-155.800000 57.050000 45.589741
-151.600000 60.650000 45.584419
-161.550000 54.800000 45.582836
-150.150000 62.150000 45.574654
-162.250000 54.650000 45.566296
-166.250000 53.550000 45.562138
-150.450000 62.050000 45.556114
-151.450000 60.900000 45.551544
-152.550000 59.300000 45.549084
-158.800000 55.800000 45.543373
-161.300000 54.850000 45.541733
-149.550000 62.300000 45.534225
-165.950000 53.650000 45.534142
-152.850000 59.050000 45.527359
-161.800000 54.750000 45.522469
-151.300000 61.150000 45.517487
-151.750000 60.400000 45.513153
-160.700000 55.000000 45.509567
-163.750000 54.200000 45.505836
-154.900000 57.500000 45.498539
-150.550000 62.000000 45.497406
-158.450000 55.950000 45.497322
-158.150000 56.050000 45.483738
-159.650000 55.400000 45.481819
-163.100000 54.400000 45.480621
-162.600000 54.550000 45.480232
-153.200000 58.750000 45.476879
-165.600000 53.750000 45.466606
-158.900000 55.750000 45.456253
-166.100000 53.600000 45.448292
-148.600000 62.650000 45.445026
-151.000000 61.600000 45.444561
-155.450000 57.200000 45.444008
-155.900000 57.000000 45.443111
-152.300000 59.550000 45.439651
-149.400000 62.350000 45.435127
-154.150000 58.000000 45.428215
-153.700000 58.300000 45.423149
-155.050000 57.400000 45.422749
-152.150000 59.750000 45.411842
-159.000000 55.700000 45.411728
-151.900000 60.150000 45.407722
-152.600000 59.250000 45.395420
-150.300000 62.100000 45.394356
-148.950000 62.550000 45.393406
-153.900000 58.150000 45.389362
-165.200000 53.850000 45.388554
-149.700000 62.250000 45.382965
-160.250000 55.150000 45.379299
-159.100000 55.650000 45.373825
-153.250000 58.700000 45.368027
-158.300000 56.000000 45.364925
-154.550000 57.750000 45.359329
-150.700000 61.900000 45.358871
-164.750000 53.950000 45.357754
-164.300000 54.050000 45.355434
-160.000000 55.250000 45.355392
-164.100000 54.100000 45.350555
-154.400000 57.850000 45.349697
-151.200000 61.300000 45.342194
-157.250000 56.350000 45.338562
-165.400000 53.800000 45.336658
-149.900000 62.200000 45.332085
-156.000000 56.950000 45.327507
-152.050000 59.900000 45.321186
-166.500000 53.450000 45.319496
-152.900000 59.000000 45.314217
-151.500000 60.800000 45.313133
-159.200000 55.600000 45.311451
-151.650000 60.550000 45.298717
-151.100000 61.450000 45.293858
-148.550000 62.650000 45.286808
-163.250000 54.350000 45.286724
-151.350000 61.050000 45.275169
-154.750000 57.600000 45.273300
-153.300000 58.650000 45.270847
-148.800000 62.600000 45.267185
-156.800000 56.550000 45.259205
-161.050000 54.900000 45.256588
-155.550000 57.150000 45.245392
-156.100000 56.900000 45.240471
-156.900000 56.500000 45.237705
-150.950000 61.650000 45.233017
-149.050000 62.500000 45.230843
-150.100000 62.150000 45.230206
-156.700000 56.600000 45.227509
-154.050000 58.050000 45.216270
-157.650000 56.200000 45.213497
-160.850000 54.950000 45.210579
-152.650000 59.200000 45.209545
-148.500000 62.650000 45.205070
-148.450000 62.650000 45.201538
-159.300000 55.550000 45.200844
-152.250000 59.600000 45.199661
-157.800000 56.150000 45.196991
-151.800000 60.300000 45.192150
-162.750000 54.500000 45.191635
-153.750000 58.250000 45.186447
-153.350000 58.600000 45.181293
-156.200000 56.850000 45.177917
-156.600000 56.650000 45.177776
-149.150000 62.450000 45.157990
-159.750000 55.350000 45.145302
-149.500000 62.300000 45.138798
-156.300000 56.800000 45.138336
-156.500000 56.700000 45.138260
-150.750000 61.850000 45.135872
-161.500000 54.800000 45.133274
-157.000000 56.450000 45.131878
-163.400000 54.300000 45.127071
-164.500000 54.000000 45.124256
-156.400000 56.750000 45.124107
-152.950000 58.950000 45.117348
-163.900000 54.150000 45.114552
-157.500000 56.250000 45.113960
-151.950000 60.050000 45.101353
-162.000000 54.700000 45.094994
-153.400000 58.550000 45.094749
-149.250000 62.400000 45.091145
-150.900000 61.700000 45.085155
-154.950000 57.450000 45.074139
-162.400000 54.600000 45.069164
-161.250000 54.850000 45.067646
-151.250000 61.200000 45.061134
-161.750000 54.750000 45.058994
-151.550000 60.700000 45.057526
-149.650000 62.250000 45.053844
-157.950000 56.100000 45.052547
-149.850000 62.200000 45.039501
-151.400000 60.950000 45.037735
-155.650000 57.100000 45.032356
-154.300000 57.900000 45.030495
-159.400000 55.500000 45.029396
-150.800000 61.800000 45.024113
-150.400000 62.050000 45.019970
-150.850000 61.750000 45.011475
-153.450000 58.500000 45.005959
-165.750000 53.700000 45.004692
-152.700000 59.150000 45.004066
-160.100000 55.200000 45.004013
-151.700000 60.450000 44.993042
-164.950000 53.900000 44.988026
-158.550000 55.900000 44.985874
-160.500000 55.050000 44.984371
-150.600000 61.950000 44.981922
-150.250000 62.100000 44.973515
-151.050000 61.500000 44.971123
-154.600000 57.700000 44.968231
-149.350000 62.350000 44.963409
-152.100000 59.800000 44.958172
-155.200000 57.300000 44.953545
-163.550000 54.250000 44.946217
-151.150000 61.350000 44.945644
-153.000000 58.900000 44.939186
-153.950000 58.100000 44.935291
-154.800000 57.550000 44.932697
-157.100000 56.400000 44.924717
-166.600000 53.400000 44.920887
-157.350000 56.300000 44.918682
-162.200000 54.650000 44.917904
-155.300000 57.250000 44.914051
-162.900000 54.450000 44.913376
-150.050000 62.150000 44.910053
-153.500000 58.450000 44.908890
-160.650000 55.000000 44.904564
-153.800000 58.200000 44.894848
-152.200000 59.650000 44.890388
-160.350000 55.100000 44.889671
-151.850000 60.200000 44.874279
-150.500000 62.000000 44.872353
-155.100000 57.350000 44.858974
-148.900000 62.550000 44.854511
-148.750000 62.600000 44.848690
-166.350000 53.500000 44.843048
-154.450000 57.800000 44.842892
-155.750000 57.050000 44.831154
-158.100000 56.050000 44.825657
-159.850000 55.300000 44.821033
-154.200000 57.950000 44.811180
-151.300000 61.100000 44.799961
-159.500000 55.450000 44.799187
-152.000000 59.950000 44.796658
-153.550000 58.400000 44.796597
-151.450000 60.850000 44.796413
-152.750000 59.100000 44.790367
-151.600000 60.600000 44.780941
-153.050000 58.850000 44.780491
-155.400000 57.200000 44.773102
-164.700000 53.950000 44.751671
-149.800000 62.200000 44.751488
-161.000000 54.900000 44.744156
-165.150000 53.850000 44.739307
-149.450000 62.300000 44.730156
-165.550000 53.750000 44.729111
-166.700000 53.350000 44.727142
-149.600000 62.250000 44.716904
-162.550000 54.550000 44.701939
-163.700000 54.200000 44.691479
-151.000000 61.550000 44.691463
-161.450000 54.800000 44.688774
-165.900000 53.650000 44.686779
-151.750000 60.350000 44.675304
-164.250000 54.050000 44.670467
-153.600000 58.350000 44.661152
-149.000000 62.500000 44.659241
-155.850000 57.000000 44.659199
-166.800000 53.300000 44.657448
-163.050000 54.400000 44.656685
-160.800000 54.950000 44.652950
-165.350000 53.800000 44.648102
-158.400000 55.950000 44.644688
-153.100000 58.800000 44.640686
-151.200000 61.250000 44.638702
-158.250000 56.000000 44.636211
-154.100000 58.000000 44.632317
-158.650000 55.850000 44.621456
-160.200000 55.150000 44.621216
-157.200000 56.350000 44.617096
-154.650000 57.650000 44.616268
-152.400000 59.400000 44.612823
-164.050000 54.100000 44.612282
-161.700000 54.750000 44.612091
-150.000000 62.150000 44.610374
-155.000000 57.400000 44.609268
-152.450000 59.350000 44.596844
-161.200000 54.850000 44.595161
-150.650000 61.900000 44.594357
-166.200000 53.550000 44.592827
-150.200000 62.100000 44.589348
-149.100000 62.450000 44.589180
-151.100000 61.400000 44.585251
-154.850000 57.500000 44.580185
-161.950000 54.700000 44.579254
-152.800000 59.050000 44.577938
-155.500000 57.150000 44.568054
-151.900000 60.100000 44.566959
-152.350000 59.450000 44.561604
-157.750000 56.150000 44.554825
-149.200000 62.400000 44.554218
-157.600000 56.200000 44.549728
-151.350000 61.000000 44.548935
-151.500000 60.750000 44.543617
-166.050000 53.600000 44.542835
-153.850000 58.150000 44.542629
-150.350000 62.050000 44.530346
-159.600000 55.400000 44.526688
-155.950000 56.950000 44.524120
-152.500000 59.300000 44.521889
-152.150000 59.700000 44.520702
-153.150000 58.750000 44.518124
-159.950000 55.250000 44.511051
-153.650000 58.300000 44.493801
-164.450000 54.000000 44.493568
-148.700000 62.600000 44.487328
-151.650000 60.500000 44.483875
-149.300000 62.350000 44.478401
-152.050000 59.850000 44.473648
-149.750000 62.200000 44.464729
-150.950000 61.600000 44.459358
-154.350000 57.850000 44.459351
-163.200000 54.350000 44.448364
-152.300000 59.500000 44.438339
-157.450000 56.250000 44.434284
-157.900000 56.100000 44.429260
-156.050000 56.900000 44.425056
-154.000000 58.050000 44.423992
-156.750000 56.550000 44.421303
-156.850000 56.500000 44.419289
-153.200000 58.700000 44.410320
-162.700000 54.500000 44.402065
-152.550000 59.250000 44.398651
-154.500000 57.750000 44.390991
-158.750000 55.800000 44.387867
-156.650000 56.600000 44.382301
-164.900000 53.900000 44.380356
-152.850000 59.000000 44.374077
-149.550000 62.250000 44.369938
-162.350000 54.600000 44.360569
-156.150000 56.850000 44.356579
-151.250000 61.150000 44.356289
-151.800000 60.250000 44.356098
-148.850000 62.550000 44.349846
-156.950000 56.450000 44.343243
-163.850000 54.150000 44.338638
-155.600000 57.100000 44.335636
-156.550000 56.650000 44.335014
-160.450000 55.050000 44.330750
-150.700000 61.850000 44.329609
-149.950000 62.150000 44.327343
-150.550000 61.950000 44.314312
-153.250000 58.650000 44.314133
-156.250000 56.800000 44.313683
-162.150000 54.650000 44.309582
-149.400000 62.300000 44.307434
-156.450000 56.700000 44.302544
-160.600000 55.000000 44.300171
-151.400000 60.900000 44.299904
-150.450000 62.000000 44.298347
-156.350000 56.750000 44.295132
-154.700000 57.600000 44.290882
-153.700000 58.250000 44.285404
-163.350000 54.300000 44.283985
-150.900000 61.650000 44.281631
-151.550000 60.650000 44.273872
-151.950000 60.000000 44.269749
-151.050000 61.450000 44.261444
-158.850000 55.750000 44.255604
-151.150000 61.300000 44.250587
-161.400000 54.800000 44.248066
-155.150000 57.300000 44.243671
-166.450000 53.450000 44.243393
-155.250000 57.250000 44.242500
-152.250000 59.550000 44.242104
-152.600000 59.200000 44.239162
-150.150000 62.100000 44.238396
-165.700000 53.700000 44.237087
-159.700000 55.350000 44.236336
-160.950000 54.900000 44.232269
-153.300000 58.600000 44.225887
-157.300000 56.300000 44.223263
-166.900000 53.250000 44.207592
-154.900000 57.450000 44.202209
-154.250000 57.900000 44.201782
-160.050000 55.200000 44.200512
-158.050000 56.050000 44.197346
-158.950000 55.700000 44.189983
-148.650000 62.600000 44.189358
-160.300000 55.100000 44.184021
-152.900000 58.950000 44.183876
-150.750000 61.800000 44.178463
-161.650000 54.750000 44.178356
-149.700000 62.200000 44.176109
-151.700000 60.400000 44.171513
-157.050000 56.400000 44.170780
-150.850000 61.700000 44.167622
-159.050000 55.650000 44.156376
-164.650000 53.950000 44.153339
-153.350000 58.550000 44.141460
-150.800000 61.750000 44.128887
-153.900000 58.100000 44.127678
-161.150000 54.850000 44.124001
-159.150000 55.600000 44.122593
-162.850000 54.450000 44.122028
-155.350000 57.200000 44.121632
-163.500000 54.250000 44.116783
-165.100000 53.850000 44.110264
-155.700000 57.050000 44.107643
-148.950000 62.500000 44.105770
-152.100000 59.750000 44.101868
-155.050000 57.350000 44.096321
-160.750000 54.950000 44.095776
-161.900000 54.700000 44.093353
-151.300000 61.050000 44.088219
-150.300000 62.050000 44.084747
-159.250000 55.550000 44.060776
-149.900000 62.150000 44.057163
-153.400000 58.500000 44.056252
-152.650000 59.150000 44.055645
-158.500000 55.900000 44.055237
-151.850000 60.150000 44.045433
-151.450000 60.800000 44.045403
-153.750000 58.200000 44.027267
-154.150000 57.950000 44.026302
-149.050000 62.450000 44.024582
-165.500000 53.750000 44.019749
-149.150000 62.400000 44.011204
-149.500000 62.250000 44.011082
-152.950000 58.900000 44.010384
-154.550000 57.700000 43.992657
-164.200000 54.050000 43.987602
-151.600000 60.550000 43.985077
-165.300000 53.800000 43.984093
-149.250000 62.350000 43.981167
-154.750000 57.550000 43.977337
-152.200000 59.600000 43.975986
-151.000000 61.500000 43.975521
-152.000000 59.900000 43.970852
-153.450000 58.450000 43.965061
-148.600000 62.600000 43.960247
-158.200000 56.000000 43.957008
-162.500000 54.550000 43.951706
-159.350000 55.500000 43.950996
-159.800000 55.300000 43.949524
-151.200000 61.200000 43.945477
-154.400000 57.800000 43.935520
-157.700000 56.150000 43.919384
-155.450000 57.150000 43.918282
-150.100000 62.100000 43.917015
-155.800000 57.000000 43.907532
-157.150000 56.350000 43.896675
-151.100000 61.350000 43.896568
-157.550000 56.200000 43.892479
-163.650000 54.200000 43.890678
-148.800000 62.550000 43.886738
-150.600000 61.900000 43.883789
-149.650000 62.200000 43.882732
-164.000000 54.100000 43.880646
-165.850000 53.650000 43.877247
-149.350000 62.300000 43.870274
-154.050000 58.000000 43.866035
-164.400000 54.000000 43.864937
-160.150000 55.150000 43.864662
-153.500000 58.400000 43.861919
-158.350000 55.950000 43.860535
-152.700000 59.100000 43.859505
-163.000000 54.400000 43.858643
-153.000000 58.850000 43.854923
-151.750000 60.300000 43.852947
-166.300000 53.500000 43.849937
-151.350000 60.950000 43.827068
-157.850000 56.100000 43.817337
-161.350000 54.800000 43.810246
-148.550000 62.600000 43.804432
-149.850000 62.150000 43.796127
-154.950000 57.400000 43.786980
-166.550000 53.400000 43.786198
-164.850000 53.900000 43.786137
-159.450000 55.450000 43.785934
-151.500000 60.700000 43.779083
-150.400000 62.000000 43.773689
-157.400000 56.250000 43.760872
-161.600000 54.750000 43.754818
-151.900000 60.050000 43.748413
-155.900000 56.950000 43.748158
-162.100000 54.650000 43.740204
-153.550000 58.350000 43.739914
-150.950000 61.550000 43.730373
-148.500000 62.600000 43.725113
-160.900000 54.900000 43.720814
-153.050000 58.800000 43.717365
-153.800000 58.150000 43.712257
-150.500000 61.950000 43.699169
-160.550000 55.000000 43.696228
-162.300000 54.600000 43.689480
-150.250000 62.050000 43.680351
-151.650000 60.450000 43.679482
-166.000000 53.600000 43.678738
-160.400000 55.050000 43.677124
-159.900000 55.250000 43.674416
-155.550000 57.100000 43.671940
-166.150000 53.550000 43.666504
-152.750000 59.050000 43.660576
-154.800000 57.500000 43.660114
-151.250000 61.100000 43.658024
-161.100000 54.850000 43.653946
-153.950000 58.050000 43.652493
-152.150000 59.650000 43.646725
-152.050000 59.800000 43.646400
-154.600000 57.650000 43.641163
-149.450000 62.250000 43.638847
-163.150000 54.350000 43.637157
-162.650000 54.500000 43.634254
-161.850000 54.700000 43.633492
-156.000000 56.900000 43.631832
-150.050000 62.100000 43.621407
-154.300000 57.850000 43.618690
-158.600000 55.850000 43.611889
-156.800000 56.500000 43.604683
-153.100000 58.750000 43.596439
-158.000000 56.050000 43.592468
-156.700000 56.550000 43.592102
-153.600000 58.300000 43.591148
-149.600000 62.200000 43.581966
-150.650000 61.850000 43.577282
-148.900000 62.500000 43.577190
-151.050000 61.400000 43.576263
-155.200000 57.250000 43.575466
-163.800000 54.150000 43.573807
-159.550000 55.400000 43.573311
-151.150000 61.250000 43.567886
-151.400000 60.850000 43.566120
-152.400000 59.350000 43.561852
-164.600000 53.950000 43.561668
-156.900000 56.450000 43.554710
-156.100000 56.850000 43.553295
-156.600000 56.600000 43.550137
-152.350000 59.400000 43.543427
-149.800000 62.150000 43.540661
-160.700000 54.950000 43.539024
-151.800000 60.200000 43.538914
-157.250000 56.300000 43.531384
-150.900000 61.600000 43.531158
-155.100000 57.300000 43.530094
-152.450000 59.300000 43.520088
-166.650000 53.350000 43.516811
-156.500000 56.650000 43.507797
-156.200000 56.800000 43.504967
-165.650000 53.700000 43.501057
-165.050000 53.850000 43.499790
-151.550000 60.600000 43.496899
-153.150000 58.700000 43.489952
-155.300000 57.200000 43.484238
-156.400000 56.700000 43.482899
-156.300000 56.750000 43.481827
-160.250000 55.100000 43.478420
-149.200000 62.350000 43.473469
-148.750000 62.550000 43.472507
-149.000000 62.450000 43.469563
-154.450000 57.750000 43.466835
-152.800000 59.000000 43.466717
-149.100000 62.400000 43.465683
-163.300000 54.300000 43.464787
-151.950000 59.950000 43.460915
-152.300000 59.450000 43.458233
-166.750000 53.300000 43.439819
-152.500000 59.250000 43.427452
-155.650000 57.050000 43.419277
-149.300000 62.300000 43.418858
-154.200000 57.900000 43.417614
-157.000000 56.400000 43.415619
-153.650000 58.250000 43.406975
-160.000000 55.200000 43.401985
-153.200000 58.650000 43.395020
-150.700000 61.800000 43.386631
-150.850000 61.650000 43.385708
-151.300000 61.000000 43.381157
-161.300000 54.800000 43.374702
-151.700000 60.350000 43.363773
-162.800000 54.450000 43.351418
-150.000000 62.100000 43.347687
-165.250000 53.800000 43.343266
-161.550000 54.750000 43.338989
-165.450000 53.750000 43.337341
-153.850000 58.100000 43.336082
-159.650000 55.350000 43.332573
-154.650000 57.600000 43.325356
-155.000000 57.350000 43.324966
-154.850000 57.450000 43.324135
-158.150000 56.000000 43.319660
-150.200000 62.050000 43.314030
-153.250000 58.600000 43.308235
-158.700000 55.800000 43.308117
-166.850000 53.250000 43.308075
-164.150000 54.050000 43.307907
-163.450000 54.250000 43.305897
-150.800000 61.700000 43.304504
-152.250000 59.500000 43.303165
-150.750000 61.750000 43.300213
-151.450000 60.750000 43.299004
-150.350000 62.000000 43.296379
-152.550000 59.200000 43.294968
-155.400000 57.150000 43.291630
-151.000000 61.450000 43.289776
-157.650000 56.150000 43.289505
-149.750000 62.150000 43.287334
-152.850000 58.950000 43.283665
-154.100000 57.950000 43.276539
-149.550000 62.200000 43.271469
-152.100000 59.700000 43.263958
-151.200000 61.150000 43.259876
-149.400000 62.250000 43.252174
-157.500000 56.200000 43.241161
-164.350000 54.000000 43.238289
-151.850000 60.100000 43.238148
-162.450000 54.550000 43.231674
-150.550000 61.900000 43.226280
-153.300000 58.550000 43.225811
-151.100000 61.300000 43.223034
-166.400000 53.450000 43.219555
-157.800000 56.100000 43.213696
-160.850000 54.900000 43.209698
-162.050000 54.650000 43.207886
-164.800000 53.900000 43.204025
-158.450000 55.900000 43.200573
-151.600000 60.500000 43.198345
-161.800000 54.700000 43.195763
-155.750000 57.000000 43.189762
-161.050000 54.850000 43.184803
-153.700000 58.200000 43.178593
-157.100000 56.350000 43.176060
-152.000000 59.850000 43.166924
-163.950000 54.100000 43.156952
-153.350000 58.500000 43.143600
-158.300000 55.950000 43.137894
-150.450000 61.950000 43.135220
-152.600000 59.150000 43.134300
-154.000000 58.000000 43.124718
-158.800000 55.750000 43.121761
-152.900000 58.900000 43.115139
-148.700000 62.550000 43.114212
-160.100000 55.150000 43.110180
-151.350000 60.900000 43.109253
-163.600000 54.200000 43.104324
-165.800000 53.650000 43.103901
-157.350000 56.250000 43.092674
-160.500000 55.000000 43.092510
-149.950000 62.100000 43.091953
-159.750000 55.300000 43.085567
-162.950000 54.400000 43.084473
-148.850000 62.500000 43.080730
-152.200000 59.550000 43.078953
-154.350000 57.800000 43.077610
-153.400000 58.450000 43.057068
-162.250000 54.600000 43.056919
-154.500000 57.700000 43.055229
-151.750000 60.250000 43.047867
-150.950000 61.500000 43.038464
-155.500000 57.100000 43.038395
-149.700000 62.150000 43.032925
-154.700000 57.550000 43.030968
-160.350000 55.050000 43.023239
-158.900000 55.700000 43.022877
-151.500000 60.650000 43.020523
-157.950000 56.050000 43.005436
-155.850000 56.950000 43.002235
-160.650000 54.950000 42.982632
-150.150000 62.050000 42.982357
-159.000000 55.650000 42.979424
-164.550000 53.950000 42.975723
-151.250000 61.050000 42.964840
-152.950000 58.850000 42.963074
-153.450000 58.400000 42.961082
-159.100000 55.600000 42.959785
-149.150000 62.350000 42.957848
-152.650000 59.100000 42.956692
-154.900000 57.400000 42.955761
-149.250000 62.300000 42.954006
-151.900000 60.000000 42.952919
-149.500000 62.200000 42.949219
-161.250000 54.800000 42.941013
-159.200000 55.550000 42.934086
-148.950000 62.450000 42.930256
-161.500000 54.750000 42.928890
-149.050000 62.400000 42.922070
-151.050000 61.350000 42.909943
-155.150000 57.250000 42.907928
-165.000000 53.850000 42.906315
-166.250000 53.500000 42.901276
-153.900000 58.050000 42.898491
-153.750000 58.150000 42.897987
-151.150000 61.200000 42.894253
-162.600000 54.500000 42.889183
-151.650000 60.400000 42.887280
-150.600000 61.850000 42.878029
-159.300000 55.500000 42.877060
-150.300000 62.000000 42.864071
-155.950000 56.900000 42.863533
-155.250000 57.200000 42.855423
-165.950000 53.600000 42.854950
-163.100000 54.350000 42.852222
-149.350000 62.250000 42.850487
-149.900000 62.100000 42.850327
-153.500000 58.350000 42.849712
-159.850000 55.250000 42.845310
-157.200000 56.300000 42.841583
-152.050000 59.750000 42.839207
-151.400000 60.800000 42.836693
-153.000000 58.800000 42.827877
-154.250000 57.850000 42.825909
-150.900000 61.550000 42.825737
-163.750000 54.150000 42.820885
-148.650000 62.550000 42.818363
-155.050000 57.300000 42.809208
-156.750000 56.500000 42.795807
-165.600000 53.700000 42.795086
-152.150000 59.600000 42.790085
-166.100000 53.550000 42.782604
-161.750000 54.700000 42.776333
-149.650000 62.150000 42.774426
-156.650000 56.550000 42.773548
-159.400000 55.450000 42.773056
-160.200000 55.100000 42.772980
-152.700000 59.050000 42.772182
-156.050000 56.850000 42.770203
-156.850000 56.450000 42.767498
-155.600000 57.050000 42.765049
-151.800000 60.150000 42.742168
-154.750000 57.500000 42.742065
-156.550000 56.600000 42.732376
-151.550000 60.550000 42.727978
-165.200000 53.800000 42.724140
-158.100000 56.000000 42.716789
-161.000000 54.850000 42.716377
-153.550000 58.300000 42.716038
-166.500000 53.400000 42.715298
-156.150000 56.800000 42.713367
-162.000000 54.650000 42.710060
-153.050000 58.750000 42.708717
-160.800000 54.900000 42.698826
-154.550000 57.650000 42.696793
-156.450000 56.650000 42.696712
-156.250000 56.750000 42.684574
-155.350000 57.150000 42.683067
-150.100000 62.050000 42.681698
-158.550000 55.850000 42.681019
-165.400000 53.750000 42.680656
-156.350000 56.700000 42.679474
-151.300000 60.950000 42.678181
-151.950000 59.900000 42.675152
-154.150000 57.900000 42.673923
-163.250000 54.300000 42.670078
-157.600000 56.150000 42.664387
-156.950000 56.400000 42.659344
-150.850000 61.600000 42.657658
-150.650000 61.800000 42.647625
-164.750000 53.900000 42.632809
-164.100000 54.050000 42.632565
-151.000000 61.400000 42.627708
-148.800000 62.500000 42.623871
-150.400000 61.950000 42.620953
-150.500000 61.900000 42.620884
-159.500000 55.400000 42.620586
-149.850000 62.100000 42.619015
-157.750000 56.100000 42.615997
-164.300000 54.000000 42.613785
-149.450000 62.200000 42.613567
-159.950000 55.200000 42.608894
-153.100000 58.700000 42.603745
-162.750000 54.450000 42.600559
-157.450000 56.200000 42.595173
-148.600000 62.550000 42.590664
-154.400000 57.750000 42.589615
-152.750000 59.000000 42.589073
-151.200000 61.100000 42.579926
-151.700000 60.300000 42.571644
-151.100000 61.250000 42.560593
-153.800000 58.100000 42.559170
-151.450000 60.700000 42.558041
-154.050000 57.950000 42.556988
-153.600000 58.250000 42.552185
-152.350000 59.350000 42.551933
-162.400000 54.550000 42.544018
-154.950000 57.350000 42.543491
-150.800000 61.650000 42.543228
-152.400000 59.300000 42.542385
-150.700000 61.750000 42.524170
-161.450000 54.750000 42.523018
-163.400000 54.250000 42.514729
-153.150000 58.650000 42.510330
-149.600000 62.150000 42.509083
-161.200000 54.800000 42.508896
-155.700000 57.000000 42.506680
-152.300000 59.400000 42.500771
-150.750000 61.700000 42.494167
-160.450000 55.000000 42.488724
-152.450000 59.250000 42.480000
-149.200000 62.300000 42.477245
-150.250000 62.000000 42.474068
-158.250000 55.950000 42.469414
-162.200000 54.600000 42.463230
-157.050000 56.350000 42.454380
-151.850000 60.050000 42.453590
-152.100000 59.650000 42.444317
-154.800000 57.450000 42.442432
-163.900000 54.100000 42.442375
-149.100000 62.350000 42.437660
-148.550000 62.550000 42.435772
-149.300000 62.250000 42.433754
-159.600000 55.350000 42.432190
-157.900000 56.050000 42.431461
-155.450000 57.100000 42.431206
-157.300000 56.250000 42.428543
-160.600000 54.950000 42.426479
-153.200000 58.600000 42.425278
-151.600000 60.450000 42.422390
-158.400000 55.900000 42.416565
-152.800000 58.950000 42.413715
-148.900000 62.450000 42.413433
-150.050000 62.050000 42.408234
-153.950000 58.000000 42.404133
-151.350000 60.850000 42.395596
-164.500000 53.950000 42.394714
-149.800000 62.100000 42.394337
-149.000000 62.400000 42.385612
-152.000000 59.800000 42.384762
-152.250000 59.450000 42.383919
-154.600000 57.600000 42.382420
-150.950000 61.450000 42.376297
-152.500000 59.200000 42.374702
-166.600000 53.350000 42.373466
-161.700000 54.700000 42.371590
-160.300000 55.050000 42.368847
-165.750000 53.650000 42.365013
-160.050000 55.150000 42.358280
-148.500000 62.550000 42.357079
-153.650000 58.200000 42.349659
-153.250000 58.550000 42.345009
-163.550000 54.200000 42.333317
-162.900000 54.400000 42.332127
-164.950000 53.850000 42.328354
-158.650000 55.800000 42.304951
-155.800000 56.950000 42.288456
-151.250000 61.000000 42.275826
-151.500000 60.600000 42.269154
-154.300000 57.800000 42.268986
-153.300000 58.500000 42.265678
-149.400000 62.200000 42.263271
-151.750000 60.200000 42.261791
-151.050000 61.300000 42.257542
-152.850000 58.900000 42.250488
-160.950000 54.850000 42.248489
-166.350000 53.450000 42.244324
-161.950000 54.650000 42.243576
-152.550000 59.150000 42.237427
-166.700000 53.300000 42.235920
-155.100000 57.250000 42.235508
-149.550000 62.150000 42.234425
-150.550000 61.850000 42.231052
-155.200000 57.200000 42.229847
-159.700000 55.300000 42.227688
-151.150000 61.150000 42.227116
-166.800000 53.250000 42.216473
-148.750000 62.500000 42.214130
-152.200000 59.500000 42.199917
-160.750000 54.900000 42.188118
-153.350000 58.450000 42.183189
-151.900000 59.950000 42.181133
-149.750000 62.100000 42.172779
-162.550000 54.500000 42.168411
-154.450000 57.700000 42.160080
-153.850000 58.050000 42.159470
-150.000000 62.050000 42.158043
-150.900000 61.500000 42.157372
-150.350000 61.950000 42.154537
-157.150000 56.300000 42.152523
-155.550000 57.050000 42.142902
-158.050000 56.000000 42.141487
-165.150000 53.800000 42.125160
-150.200000 62.000000 42.123322
-155.900000 56.900000 42.122810
-161.400000 54.750000 42.120296
-165.550000 53.700000 42.117729
-154.850000 57.400000 42.116798
-151.400000 60.750000 42.112289
-151.650000 60.350000 42.109062
-152.900000 58.850000 42.101986
-153.700000 58.150000 42.100086
-154.650000 57.550000 42.098965
-153.400000 58.400000 42.093082
-163.050000 54.350000 42.092159
-155.300000 57.150000 42.087223
-163.700000 54.150000 42.080597
-152.600000 59.100000 42.079102
-155.000000 57.300000 42.078453
-161.150000 54.800000 42.078125
-154.200000 57.850000 42.078064
-164.700000 53.900000 42.071407
-165.900000 53.600000 42.070148
-160.150000 55.100000 42.067875
-150.450000 61.900000 42.066486
-158.750000 55.750000 42.058037
-152.050000 59.700000 42.051819
-165.350000 53.750000 42.048397
-157.550000 56.150000 42.043484
-159.800000 55.250000 42.023144
-157.700000 56.100000 42.022545
-156.000000 56.850000 42.009701
-149.250000 62.250000 42.002560
-166.200000 53.500000 41.995972
-156.700000 56.500000 41.994751
-164.250000 54.000000 41.991802
-149.150000 62.300000 41.990868
-153.450000 58.350000 41.990273
-151.000000 61.350000 41.983437
-156.800000 56.450000 41.983234
-151.300000 60.900000 41.979187
-161.650000 54.700000 41.978291
-150.850000 61.550000 41.975105
-152.950000 58.800000 41.969219
-151.550000 60.500000 41.968632
-156.600000 56.550000 41.967461
-151.800000 60.100000 41.967304
-154.100000 57.900000 41.966072
-164.050000 54.050000 41.962788
-150.600000 61.800000 41.960602
-157.400000 56.200000 41.953861
-149.700000 62.100000 41.951019
-152.150000 59.550000 41.950981
-149.500000 62.150000 41.948296
-166.050000 53.550000 41.940475
-156.100000 56.800000 41.940464
-156.500000 56.600000 41.930103
-149.950000 62.050000 41.927170
-148.850000 62.450000 41.926392
-149.050000 62.350000 41.917133
-158.850000 55.700000 41.915821
-151.950000 59.850000 41.912613
-152.650000 59.050000 41.909809
-162.150000 54.600000 41.908001
-151.100000 61.200000 41.905952
-151.200000 61.050000 41.904305
-156.200000 56.750000 41.904060
-156.900000 56.400000 41.902607
-156.400000 56.650000 41.902149
-163.200000 54.300000 41.899937
-149.350000 62.200000 41.897564
-156.300000 56.700000 41.892483
-162.350000 54.550000 41.890720
-160.400000 55.000000 41.884518
-160.550000 54.950000 41.870377
-162.700000 54.450000 41.869141
-153.500000 58.300000 41.868832
-157.850000 56.050000 41.866596
-154.000000 57.950000 41.862831
-148.950000 62.400000 41.862358
-148.700000 62.500000 41.858780
-155.650000 57.000000 41.858093
-153.000000 58.750000 41.851871
-158.950000 55.650000 41.849796
-158.200000 55.950000 41.847576
-155.400000 57.100000 41.845833
-150.800000 61.600000 41.836681
-154.700000 57.500000 41.830688
-159.050000 55.600000 41.830254
-159.150000 55.550000 41.827171
-158.500000 55.850000 41.825756
-151.450000 60.650000 41.823597
-159.900000 55.200000 41.821396
-164.450000 53.950000 41.818012
-159.250000 55.500000 41.812046
-150.150000 62.000000 41.808479
-161.900000 54.650000 41.804859
-150.650000 61.750000 41.799702
-151.700000 60.250000 41.796913
-153.750000 58.100000 41.796318
-166.900000 53.200000 41.792820
-154.500000 57.650000 41.788284
-160.900000 54.850000 41.780949
-157.250000 56.250000 41.767254
-164.900000 53.850000 41.764561
-159.350000 55.450000 41.762558
-154.350000 57.750000 41.760868
-150.750000 61.650000 41.752399
-154.900000 57.350000 41.751755
-153.050000 58.700000 41.748501
-163.350000 54.250000 41.744228
-152.700000 59.000000 41.738178
-163.850000 54.100000 41.737926
-150.950000 61.400000 41.737030
-150.700000 61.700000 41.735210
-150.300000 61.950000 41.733784
-157.000000 56.350000 41.731216
-149.650000 62.100000 41.725948
-153.550000 58.250000 41.721806
-161.350000 54.750000 41.719994
-160.250000 55.050000 41.713734
-149.900000 62.050000 41.711678
-166.450000 53.400000 41.701942
-153.900000 58.000000 41.700661
-158.350000 55.900000 41.697086
-151.850000 60.000000 41.692764
-151.350000 60.800000 41.686600
-160.700000 54.900000 41.677486
-159.450000 55.400000 41.668331
-151.600000 60.400000 41.658924
-165.700000 53.650000 41.658829
-153.100000 58.650000 41.656788
-149.450000 62.150000 41.648895
-161.100000 54.800000 41.648506
-152.100000 59.600000 41.642803
-150.500000 61.850000 41.635506
-152.000000 59.750000 41.624176
-151.050000 61.250000 41.614925
-160.000000 55.150000 41.609383
-155.750000 56.950000 41.608212
-155.150000 57.200000 41.602589
-162.850000 54.400000 41.599758
-161.600000 54.700000 41.593651
-151.250000 60.950000 41.590614
-152.350000 59.300000 41.588142
-158.000000 56.000000 41.587456
-163.500000 54.200000 41.578522
-153.150000 58.600000 41.573734
-152.750000 58.950000 41.571079
-152.300000 59.350000 41.566986
-151.150000 61.100000 41.564648
-148.650000 62.500000 41.564560
-150.400000 61.900000 41.561741
-154.750000 57.450000 41.560726
-149.200000 62.250000 41.558182
-152.400000 59.250000 41.555130
-155.050000 57.250000 41.554707
-155.500000 57.050000 41.549782
-165.100000 53.800000 41.544750
-153.600000 58.200000 41.541336
-159.550000 55.350000 41.533752
-151.500000 60.550000 41.526375
-150.100000 62.000000 41.525932
-164.650000 53.900000 41.518845
-150.900000 61.450000 41.518364
-149.300000 62.200000 41.516201
-154.250000 57.800000 41.508198
-149.850000 62.050000 41.507702
-155.250000 57.150000 41.498665
-149.100000 62.300000 41.497993
-151.750000 60.150000 41.496338
-153.200000 58.550000 41.495911
-149.600000 62.100000 41.494705
-152.250000 59.400000 41.485207
-148.800000 62.450000 41.476727
-152.450000 59.200000 41.476696
-162.500000 54.500000 41.473919
-154.550000 57.600000 41.467720
-165.500000 53.700000 41.467583
-157.100000 56.300000 41.463093
-165.300000 53.750000 41.439167
-153.800000 58.050000 41.433712
-151.900000 59.900000 41.433544
-157.650000 56.100000 41.432198
-157.500000 56.150000 41.426392
-153.250000 58.500000 41.419632
-152.800000 58.900000 41.413521
-155.850000 56.900000 41.412025
-149.000000 62.350000 41.401352
-151.400000 60.700000 41.393848
-161.850000 54.650000 41.390083
-162.100000 54.600000 41.390018
-158.600000 55.800000 41.377728
-159.650000 55.300000 41.374317
-164.200000 54.000000 41.372921
-154.150000 57.850000 41.371311
-160.100000 55.100000 41.363300
-152.500000 59.150000 41.362938
-148.900000 62.400000 41.359051
-150.250000 61.950000 41.356125
-163.000000 54.350000 41.355206
-163.650000 54.150000 41.353584
-151.000000 61.300000 41.351849
-151.650000 60.300000 41.346615
-153.300000 58.450000 41.341068
-152.200000 59.450000 41.339378
-148.600000 62.500000 41.337406
-154.950000 57.300000 41.336460
-149.400000 62.150000 41.334820
-150.850000 61.500000 41.329681
-150.550000 61.800000 41.324787
