-154.35 59.6 -132.928878784
-156.75 58.05 -132.880249023
-166.3 54.45 -132.878921509
-154.95 59.1 -132.874313354
-161.65 55.85 -132.873748779
-156.55 58.15 -132.869262695
-155.15 58.95 -132.868362427
-165.05 54.8 -132.837112427
-157.55 57.7 -132.817520142
-150.45 63.5 -132.816589355
-149.9 63.7 -132.786514282
-149 64.05 -132.773834229
-151.15 63.25 -132.762771606
-164.05 55.05 -132.751678467
-158.5 57.2 -132.713394165
-152.85 61.4 -132.702865601
-153.05 60.95 -132.699829102
-148.85 64.1 -132.696075439
-152.15 62.65 -132.69241333
-152.25 62.55 -132.68661499
-160.85 56.05 -132.68270874
-162.75 55.5 -132.680953979
-158.15 57.4 -132.675384521
-155.85 58.55 -132.67276001
-154.6 59.4 -132.624847412
-156.85 58 -132.608352661
-152.6 62 -132.608047485
-152.2 62.6 -132.572692871
-156.45 58.2 -132.550750732
-159.35 56.6 -132.531784058
-166.45 54.4 -132.531173706
-148.15 64.25 -132.521606445
-150.3 63.55 -132.510848999
-161.45 55.9 -132.49256897
-154.2 59.7 -132.491333008
-155.3 58.85 -132.481018066
-153.7 60.05 -132.459396362
-154.05 59.8 -132.427947998
-152.5 62.2 -132.393875122
-163 55.4 -132.345825195
-166.9 54.25 -132.339126587
-160.25 56.2 -132.332870483
-151.9 62.85 -132.325210571
-152.7 61.75 -132.299942017
-156.1 58.4 -132.298400879
-160.1 56.25 -132.296035767
-167.25 54.05 -132.285766602
-162 55.75 -132.282470703
-157.65 57.65 -132.277313232
-153.9 59.9 -132.26739502
-152.55 62.1 -132.261901855
-151.75 62.95 -132.260009766
-164.2 55 -132.250366211
-153.25 60.55 -132.247756958
-158.05 57.45 -132.247299194
-157.3 57.8 -132.244338989
-153 61.05 -132.239532471
-161.05 56 -132.223526001
-155.75 58.6 -132.206054688
-148.45 64.2 -132.197387695
-161.25 55.95 -132.196243286
-156.95 57.95 -132.190063477
-166.6 54.35 -132.175827026
-149.25 63.95 -132.162353516
-148.1 64.25 -132.131896973
-165.65 54.65 -132.131896973
-158.8 57 -132.131378174
-153.35 60.4 -132.105636597
-164.55 54.9 -132.104766846
-149.5 63.85 -132.104232788
-150.15 63.6 -132.086288452
-158.65 57.1 -132.065750122
-167.1 54.15 -132.06338501
-154.65 59.35 -132.050476074
-155 59.05 -132.042053223
-159.2 56.7 -132.040802002
-152.8 61.5 -132.037612915
-156.35 58.25 -132.036453247
-149.75 63.75 -132.021575928
-151 63.3 -131.99180603
-160.6 56.1 -131.966323853
-157.95 57.5 -131.953262329
-166.75 54.3 -131.953201294
-157.75 57.6 -131.941513062
-148.65 64.15 -131.898635864
-158.4 57.25 -131.861175537
-155.65 58.65 -131.856399536
-159 56.85 -131.854812622
-162.6 55.55 -131.84677124
-157.85 57.55 -131.837844849
-151.25 63.2 -131.832763672
-159.6 56.45 -131.814422607
-152.4 62.35 -131.813095093
-154.4 59.55 -131.784164429
-161.8 55.8 -131.781585693
-160.4 56.15 -131.77331543
-159.95 56.3 -131.753997803
-152.95 61.15 -131.740036011
-163.55 55.2 -131.727661133
-163.4 55.25 -131.706253052
-157.05 57.9 -131.650482178
-164.75 54.85 -131.627365112
-165.25 54.75 -131.627304077
-163.7 55.15 -131.581817627
-159.5 56.5 -131.575683594
-155.55 58.7 -131.560150146
-164.35 54.95 -131.558502197
-165.8 54.6 -131.557327271
-150.85 63.35 -131.555511475
-150 63.65 -131.553817749
-154.7 59.3 -131.551635742
-165 54.8 -131.550537109
-162.15 55.7 -131.550262451
-156 58.45 -131.545547485
-153.75 60 -131.517379761
-159.7 56.4 -131.493408203
-157.4 57.75 -131.489318848
-149.1 64 -131.479446411
-160.8 56.05 -131.468719482
-163.25 55.3 -131.465087891
-167 54.2 -131.461776733
-152.65 61.85 -131.433990479
-162.85 55.45 -131.43347168
-155.2 58.9 -131.427307129
-161.6 55.85 -131.420761108
-148.4 64.2 -131.403640747
-151.65 63 -131.382049561
-156.25 58.3 -131.370452881
-165.45 54.7 -131.352493286
-150.7 63.4 -131.330093384
-162.45 55.6 -131.317474365
-163.85 55.1 -131.295089722
-152.75 61.6 -131.28086853
-151.95 62.8 -131.279006958
-148.8 64.1 -131.257675171
-152.9 61.25 -131.223693848
-155.45 58.75 -131.214111328
-165.95 54.55 -131.212600708
-162.3 55.65 -131.207992554
-151.35 63.15 -131.193389893
-158.3 57.3 -131.17288208
-150.55 63.45 -131.172668457
-149.35 63.9 -131.150588989
-148.95 64.05 -131.142181396
-149.6 63.8 -131.139572144
-154.25 59.65 -131.092941284
-154.75 59.25 -131.089706421
-161.4 55.9 -131.057922363
-155.05 59 -131.057571411
-157.15 57.85 -131.009414673
-150.4 63.5 -130.965560913
-161 56 -130.951019287
-163.1 55.35 -130.9478302
-166.1 54.5 -130.944488525
-154.1 59.75 -130.933120728
-151.55 63.05 -130.931137085
-153.3 60.45 -130.929519653
-149.85 63.7 -130.907669067
-164 55.05 -130.89465332
-155.9 58.5 -130.88067627
-151.45 63.1 -130.880157471
-153.95 59.85 -130.865692139
-158.55 57.15 -130.865249634
-153.15 60.7 -130.829544067
-153.1 60.8 -130.826965332
-161.2 55.95 -130.822998047
-156.6 58.1 -130.821578979
-156.7 58.05 -130.803863525
-148.6 64.15 -130.782989502
-154.45 59.5 -130.780807495
-152.35 62.4 -130.776824951
-158.85 56.95 -130.776016235
-157.5 57.7 -130.769378662
-159.05 56.8 -130.757324219
-151.1 63.25 -130.748657227
-161.95 55.75 -130.73815918
-151.8 62.9 -130.726791382
-159.25 56.65 -130.726257324
-159.8 56.35 -130.718978882
-159.4 56.55 -130.717605591
-148.35 64.2 -130.702301025
-152.6 61.95 -130.701370239
-155.35 58.8 -130.690444946
-152.45 62.25 -130.677490234
-152.85 61.35 -130.67678833
-166.25 54.45 -130.663925171
-150.25 63.55 -130.653991699
-156.5 58.15 -130.627288818
-154.8 59.2 -130.62260437
-156.15 58.35 -130.618240356
-160.55 56.1 -130.60647583
-158.2 57.35 -130.603805542
-156.8 58 -130.592453003
-153.05 60.9 -130.558746338
-162.7 55.5 -130.505950928
-160.2 56.2 -130.489471436
-164.5 54.9 -130.470275879
-152.7 61.7 -130.451156616
-152 62.75 -130.441131592
-158.7 57.05 -130.438735962
-153.2 60.6 -130.43031311
-153.8 59.95 -130.410888672
-164.15 55 -130.402313232
-166.4 54.4 -130.344543457
-155.8 58.55 -130.339950562
-149.2 63.95 -130.326126099
-161.75 55.8 -130.315963745
-157.25 57.8 -130.289154053
-164.95 54.8 -130.284866333
-160.05 56.25 -130.280776978
-160.75 56.05 -130.24256897
-152.55 62.05 -130.238616943
-153.5 60.2 -130.235168457
-150.1 63.6 -130.233886719
-164.7 54.85 -130.226425171
-156.4 58.2 -130.224212646
-156.9 57.95 -130.216125488
-165.2 54.75 -130.195495605
-149.45 63.85 -130.192260742
-152.5 62.15 -130.18737793
-165.6 54.65 -130.182983398
-162.95 55.4 -130.166381836
-157.6 57.65 -130.162597656
-153 61 -130.145690918
-160.35 56.15 -130.142974854
-158.1 57.4 -130.134674072
-149.7 63.75 -130.133087158
-154.85 59.15 -130.108428955
-153.55 60.15 -130.106674194
-148.3 64.2 -130.088500977
-153.45 60.25 -130.088317871
-150.95 63.3 -130.071868896
-152.8 61.45 -130.069580078
-166.55 54.35 -130.017608643
-152.3 62.45 -130.00894165
-161.55 55.85 -129.974761963
-166.85 54.25 -129.944351196
-158.45 57.2 -129.926483154
-155.7 58.6 -129.924819946
-154.5 59.45 -129.920272827
-148.75 64.1 -129.916976929
-155.1 58.95 -129.916854858
-162.1 55.7 -129.89654541
-155.25 58.85 -129.861160278
-156.05 58.4 -129.85395813
-152.05 62.7 -129.813278198
-163.5 55.2 -129.809509277
-154.3 59.6 -129.796142578
-166.7 54.3 -129.781158447
-158 57.45 -129.775558472
-148.55 64.15 -129.769302368
-149.05 64 -129.766799927
-162.55 55.55 -129.764221191
-164.3 54.95 -129.764007568
-151.2 63.2 -129.749084473
-157.7 57.6 -129.738952637
-167.15 54.1 -129.73765564
-163.35 55.25 -129.732131958
-153.6 60.1 -129.719329834
-149.95 63.65 -129.706665039
-163.65 55.15 -129.70413208
-157 57.9 -129.703781128
-150.8 63.35 -129.700485229
-160.95 56 -129.696487427
-152.95 61.1 -129.672775269
-159.1 56.75 -129.663635254
-165.4 54.7 -129.6612854
-153.4 60.3 -129.657836914
-156.3 58.25 -129.643157959
-161.35 55.9 -129.634872437
-152.65 61.8 -129.607803345
-159.9 56.3 -129.603637695
-148.9 64.05 -129.597457886
-155.6 58.65 -129.596252441
-151.7 62.95 -129.570083618
-157.9 57.5 -129.561752319
-148.25 64.2 -129.556747437
-157.8 57.55 -129.538619995
-157.35 57.75 -129.525909424
-158.9 56.9 -129.521011353
-154.9 59.1 -129.509185791
-150.65 63.4 -129.506240845
-153.25 60.5 -129.503585815
-152.25 62.5 -129.498184204
-165.75 54.6 -129.481781006
-154.15 59.7 -129.474197388
-161.15 55.95 -129.471206665
-163.8 55.1 -129.445785522
-154 59.8 -129.421173096
-163.2 55.3 -129.415863037
-162.25 55.65 -129.411010742
-151.85 62.85 -129.403762817
-152.1 62.65 -129.39881897
-152.75 61.55 -129.379394531
-162.4 55.6 -129.368850708
-150.5 63.45 -129.352096558
-149.3 63.9 -129.28477478
-155.5 58.7 -129.274963379
-159.3 56.6 -129.260971069
-149.55 63.8 -129.245742798
-162.8 55.45 -129.241622925
-152.4 62.3 -129.233932495
-152.2 62.55 -129.233093262
-161.9 55.75 -129.225967407
-152.15 62.6 -129.20300293
-154.55 59.4 -129.194824219
-160.5 56.1 -129.184143066
-158.35 57.25 -129.182159424
-152.9 61.2 -129.180007935
-153.85 59.9 -129.176376343
-159.55 56.45 -129.154876709
-155.95 58.45 -129.145477295
-150.35 63.5 -129.138534546
-148.2 64.2 -129.100875854
-158.6 57.1 -129.099533081
-153.65 60.05 -129.096603394
-157.1 57.85 -129.079986572
-165.9 54.55 -129.060012817
-163.95 55.05 -129.058410645
-149.8 63.7 -129.055786133
-159.65 56.4 -129.035293579
-164.9 54.8 -129.027938843
-151.3 63.15 -129.024612427
-160.7 56.05 -128.994064331
-153.35 60.35 -128.944396973
-156.2 58.3 -128.940185547
-158.75 57 -128.916946411
-161.7 55.8 -128.863830566
-148.5 64.15 -128.856063843
-155.4 58.75 -128.850112915
-152.6 61.9 -128.848327637
-151.6 63 -128.846862793
-165.15 54.75 -128.828643799
-150.2 63.55 -128.827072144
-163.05 55.35 -128.819641113
-164.45 54.9 -128.805450439
-154.95 59.05 -128.7940979
-164.65 54.85 -128.788772583
-151.05 63.25 -128.778961182
-157.45 57.7 -128.776687622
-166.05 54.5 -128.756576538
-156.65 58.05 -128.715164185
-148.15 64.2 -128.714050293
-159.45 56.5 -128.690475464
-148.7 64.1 -128.675933838
-152.85 61.3 -128.667098999
-156.55 58.1 -128.647674561
-166.95 54.2 -128.632843018
-155.15 58.9 -128.626998901
-154.35 59.55 -128.619644165
-152.7 61.65 -128.609985352
-151.4 63.1 -128.608306885
-153.1 60.75 -128.591278076
-160.15 56.2 -128.591033936
-154.6 59.35 -128.58706665
-158.25 57.3 -128.576843262
-156.75 58 -128.575439453
-164.1 55 -128.572845459
-149.15 63.95 -128.552062988
-155.85 58.5 -128.541229248
-151.5 63.05 -128.536712646
-161.5 55.85 -128.535552979
-159.15 56.7 -128.532119751
-166.2 54.45 -128.472290039
-160.9 56 -128.454864502
-153.15 60.65 -128.446624756
-167.05 54.15 -128.44442749
-160.3 56.15 -128.441238403
-153.05 60.85 -128.42414856
-159.75 56.35 -128.422683716
-150.05 63.6 -128.414123535
-157.2 57.8 -128.368896484
-152.45 62.2 -128.367492676
-162.65 55.5 -128.366149902
-156.45 58.15 -128.365112305
-158.95 56.85 -128.351333618
-149.4 63.85 -128.317901611
-165.55 54.65 -128.312988281
-152.55 62 -128.297775269
-151.9 62.8 -128.290237427
-162.05 55.7 -128.289474487
-149.65 63.75 -128.269851685
-153.7 60 -128.26739502
-156.85 57.95 -128.2527771
-160 56.25 -128.232711792
-161.3 55.9 -128.22567749
-155.3 58.8 -128.197357178
-150.9 63.3 -128.189682007
-156.1 58.35 -128.18637085
-166.35 54.4 -128.170059204
-148.85 64.05 -128.143371582
-161.1 55.95 -128.141571045
-149 64 -128.131484985
-157.55 57.65 -128.1146698
-152.8 61.4 -128.109680176
-152.5 62.1 -128.093292236
-154.2 59.65 -128.078979492
-158.15 57.35 -128.075668335
-153 60.95 -128.071395874
-154.65 59.3 -128.070571899
-155.75 58.55 -128.059936523
-152.35 62.35 -128.059738159
-158.5 57.15 -128.056640625
-165.35 54.7 -128.053588867
-148.45 64.15 -128.040817261
-162.9 55.4 -127.988685608
-164.25 54.95 -127.970565796
-151.75 62.9 -127.968925476
-154.05 59.75 -127.967346191
-153.3 60.4 -127.957839966
-155 59 -127.941986084
-149.9 63.65 -127.889343262
-163.45 55.2 -127.886207581
-156.35 58.2 -127.884788513
-150.75 63.35 -127.875640869
-166.5 54.35 -127.86605072
-153.2 60.55 -127.858917236
-153.9 59.85 -127.850234985
-163.6 55.15 -127.827629089
-152.65 61.75 -127.802619934
-156.95 57.9 -127.77722168
-164.85 54.8 -127.76802063
-163.3 55.25 -127.746124268
-161.85 55.75 -127.74131012
-162.5 55.55 -127.73110199
-151.15 63.2 -127.715583801
-160.65 56.05 -127.713058472
-150.6 63.4 -127.70614624
-160.45 56.1 -127.694778442
-155.65 58.6 -127.683952332
-158.05 57.4 -127.670661926
-162.2 55.65 -127.669273376
-166.8 54.25 -127.665733337
-152.95 61.05 -127.631538391
-166.65 54.3 -127.63117981
-159.35 56.55 -127.613136292
-157.65 57.6 -127.612388611
-154.7 59.25 -127.611412048
-163.75 55.1 -127.605125427
-157.3 57.75 -127.603492737
-154.4 59.5 -127.576171875
-150.45 63.45 -127.553985596
-148.65 64.1 -127.535713196
-165.1 54.75 -127.517623901
-158.8 56.95 -127.503013611
-152.75 61.5 -127.481208801
-162.35 55.6 -127.476333618
-165.7 54.6 -127.473487854
-149.25 63.9 -127.47038269
-156 58.4 -127.453422546
-159.85 56.3 -127.431022644
-158.65 57.05 -127.425109863
-161.65 55.8 -127.422325134
-151.95 62.75 -127.386047363
-157.95 57.45 -127.382156372
-149.5 63.8 -127.38205719
-155.55 58.65 -127.357078552
-163.15 55.3 -127.3515625
-150.3 63.5 -127.338302612
-148.4 64.15 -127.320205688
-157.75 57.55 -127.320053101
-159.2 56.65 -127.31892395
-164.6 54.85 -127.312225342
-153.75 59.95 -127.264381409
-156.25 58.25 -127.251152039
-157.85 57.5 -127.250938416
-167.2 54.05 -127.247390747
-159 56.8 -127.243530273
-158.4 57.2 -127.242019653
-163.9 55.05 -127.239303589
-149.75 63.7 -127.229431152
-160.85 56 -127.219604492
-155.2 58.85 -127.204246521
-157.05 57.85 -127.177383423
-154.75 59.2 -127.17074585
-152.9 61.15 -127.161705017
-152.3 62.4 -127.147964478
-164.4 54.9 -127.116661072
-161.45 55.85 -127.103736877
-162.75 55.45 -127.071983337
-152.6 61.85 -127.037353516
-150.15 63.55 -127.032035828
-155.45 58.7 -126.988525391
-151.65 62.95 -126.970748901
-165.85 54.55 -126.962020874
-155.05 58.95 -126.942611694
-151.25 63.15 -126.913009644
-151 63.25 -126.852500916
-149.1 63.95 -126.844818115
-157.4 57.7 -126.833992004
-161.05 55.95 -126.833763123
-161.25 55.9 -126.832580566
-152.4 62.25 -126.806602478
-155.9 58.45 -126.799346924
-148.8 64.05 -126.783149719
-152.7 61.6 -126.773704529
-154.25 59.6 -126.77180481
-164.05 55 -126.762710571
-162 55.7 -126.725440979
-153.25 60.45 -126.716697693
-154.8 59.15 -126.70803833
-152 62.7 -126.691917419
-148.35 64.15 -126.690055847
-163 55.35 -126.683013916
-152.85 61.25 -126.676765442
-160.25 56.15 -126.674285889
-154.45 59.45 -126.671203613
-160.1 56.2 -126.647872925
-150 63.6 -126.626655579
-166 54.5 -126.610710144
-156.6 58.05 -126.609947205
-158.3 57.25 -126.592849731
-151.8 62.85 -126.578529358
-148.95 64 -126.577827454
-156.7 58 -126.550979614
-153.45 60.2 -126.545417786
-159.6 56.4 -126.536109924
-153.5 60.15 -126.53553009
-154.1 59.7 -126.535179138
-156.15 58.3 -126.529159546
-165.3 54.7 -126.526527405
-165.5 54.65 -126.523239136
-148.6 64.1 -126.496566772
-164.8 54.8 -126.494430542
-152.25 62.45 -126.489707947
-149.35 63.85 -126.484840393
-157.15 57.8 -126.480400085
-153.95 59.8 -126.467788696
-155.35 58.75 -126.465080261
-156.5 58.1 -126.453483582
-159.5 56.45 -126.44683075
-149.6 63.75 -126.432220459
-152.55 61.95 -126.425689697
-151.35 63.1 -126.402099609
-151.55 63 -126.39540863
-160.6 56.05 -126.390007019
-150.85 63.3 -126.343955994
-153.1 60.7 -126.33807373
-166.15 54.45 -126.310043335
-156.8 57.95 -126.293258667
-153.05 60.8 -126.28868103
-153.4 60.25 -126.285583496
-161.8 55.75 -126.279708862
-153.55 60.1 -126.268386841
-162.6 55.5 -126.266998291
-158.55 57.1 -126.260292053
-155.8 58.5 -126.257171631
-165.05 54.75 -126.252105713
-151.45 63.05 -126.217269897
-152.05 62.65 -126.209709167
-158.85 56.9 -126.194381714
-154.85 59.1 -126.184631348
-152.45 62.15 -126.184394836
-164.2 54.95 -126.184112549
-159.05 56.75 -126.165863037
-152.8 61.35 -126.161048889
-159.95 56.25 -126.159873962
-148.3 64.15 -126.145484924
-160.4 56.1 -126.136528015
-157.5 57.65 -126.127670288
-153.8 59.9 -126.122306824
-149.85 63.65 -126.100090027
-152.5 62.05 -126.097328186
-159.7 56.35 -126.096939087
-156.4 58.15 -126.086265564
-150.7 63.35 -126.079841614
-152.2 62.5 -126.075370789
-166.9 54.2 -126.063278198
-158.2 57.3 -126.061729431
-153.15 60.6 -126.031745911
-166.3 54.4 -126.013420105
-152.65 61.7 -126.011917114
-153 60.9 -126.010848999
-161.6 55.8 -125.989257812
-160.8 56 -125.982879639
-159.25 56.6 -125.981521606
-162.15 55.65 -125.981231689
-163.4 55.2 -125.95513916
-163.55 55.15 -125.949081421
-152.1 62.6 -125.942687988
-150.55 63.4 -125.929985046
-154.5 59.4 -125.90184021
-152.15 62.55 -125.895729065
-156.9 57.9 -125.865013123
-158.7 57 -125.849830627
-155.7 58.55 -125.827445984
-162.85 55.4 -125.819519043
-164.55 54.85 -125.796989441
-155.1 58.9 -125.796577454
-156.05 58.35 -125.791343689
-150.4 63.45 -125.780380249
-163.7 55.1 -125.768768311
-153.6 60.05 -125.763755798
-159.4 56.5 -125.76033783
-153.35 60.3 -125.751831055
-162.45 55.55 -125.750358582
-163.25 55.25 -125.746757507
-167.1 54.1 -125.736236572
-151.1 63.2 -125.730636597
-166.45 54.35 -125.725097656
-157.25 57.75 -125.718330383
-149.2 63.9 -125.711952209
-148.25 64.15 -125.68094635
-161.4 55.85 -125.680526733
-155.25 58.8 -125.671279907
-162.3 55.6 -125.640586853
-158.1 57.35 -125.624031067
-152.95 61 -125.61328125
-152.75 61.45 -125.58795929
-154.3 59.55 -125.572822571
-150.25 63.5 -125.567466736
-154.9 59.05 -125.567131042
-148.55 64.1 -125.557807922
-157.6 57.6 -125.556816101
-149.45 63.8 -125.551101685
-161 55.95 -125.546127319
-156.3 58.2 -125.539779663
-165.65 54.6 -125.534980774
-148.75 64.05 -125.519386292
-152.35 62.3 -125.50428009
-166.6 54.3 -125.496582031
-155.6 58.6 -125.474754333
-166.75 54.25 -125.460952759
-161.2 55.9 -125.457649231
-163.85 55.05 -125.433052063
-149.7 63.7 -125.427528381
-164.35 54.9 -125.411018372
-151.85 62.8 -125.398658752
-158.45 57.15 -125.358772278
-167 54.15 -125.314682007
-151.7 62.9 -125.304290771
-157 57.85 -125.297218323
-148.2 64.15 -125.290275574
-158 57.4 -125.282676697
-163.1 55.3 -125.273674011
-150.1 63.55 -125.269943237
-152.6 61.8 -125.258407593
-154.55 59.35 -125.256118774
-153.2 60.5 -125.247192383
-159.8 56.3 -125.237915039
-149.05 63.95 -125.209030151
-161.95 55.7 -125.200370789
-164.75 54.8 -125.1979599
-157.7 57.55 -125.178939819
-152.9 61.1 -125.168708801
-154.15 59.65 -125.152770996
-155.5 58.65 -125.128860474
-148.9 64 -125.109909058
-155.95 58.4 -125.102920532
-159.1 56.7 -125.079719543
-165.25 54.7 -125.07585907
-157.9 57.45 -125.066642761
-154 59.75 -125.062438965
-153.65 60 -125.047363281
-165 54.75 -125.020858765
-157.8 57.5 -125.019432068
-160.55 56.05 -125.016677856
-158.9 56.85 -124.981643677
-164 55 -124.970932007
-150.95 63.25 -124.968101501
-148.15 64.15 -124.96672821
-153.3 60.35 -124.948738098
-152.7 61.55 -124.941123962
-157.35 57.7 -124.936386108
-162.7 55.45 -124.931274414
-165.8 54.55 -124.921829224
-153.85 59.85 -124.876533508
-149.95 63.6 -124.870361328
-156.2 58.25 -124.869979858
-151.2 63.15 -124.856124878
-160.2 56.15 -124.85030365
-161.75 55.75 -124.836906433
-154.95 59 -124.830162048
-165.45 54.65 -124.814315796
-160.75 56 -124.735870361
-148.5 64.1 -124.717796326
-154.6 59.3 -124.713088989
-152.85 61.2 -124.707984924
-149.3 63.85 -124.697166443
-155.4 58.7 -124.692077637
-160.05 56.2 -124.670127869
-158.35 57.2 -124.653831482
-149.55 63.75 -124.621284485
-157.1 57.8 -124.620231628
-152.55 61.9 -124.609672546
-161.55 55.8 -124.563293457
-158.6 57.05 -124.546585083
-162.95 55.35 -124.543174744
-150.8 63.3 -124.53339386
-152.4 62.2 -124.519126892
-155.15 58.85 -124.51410675
-156.65 58 -124.513969421
-165.95 54.5 -124.511116028
-160.35 56.1 -124.510375977
-155.85 58.45 -124.508934021
-154.35 59.5 -124.497032166
-156.55 58.05 -124.485908508
-159.3 56.55 -124.482276917
-151.6 62.95 -124.459274292
-152.3 62.35 -124.456428528
-151.9 62.75 -124.429122925
-164.15 54.95 -124.409004211
-158.75 56.95 -124.379142761
-148.7 64.05 -124.3539505
-162.1 55.65 -124.344726562
-149.8 63.65 -124.337005615
-156.75 57.95 -124.331222534
-150.65 63.35 -124.312187195
-160.95 55.95 -124.275604248
-161.35 55.85 -124.267669678
-151.3 63.1 -124.258255005
-164.5 54.85 -124.245498657
-154.65 59.25 -124.243835449
-156.45 58.1 -124.240600586
-152.65 61.65 -124.230934143
-152.8 61.3 -124.226753235
-162.55 55.5 -124.213119507
-157.45 57.65 -124.195877075
-152.5 62 -124.185447693
-166.1 54.45 -124.182525635
-150.5 63.4 -124.178474426
-153.7 59.95 -124.149284363
-156.1 58.3 -124.14704895
-153.05 60.75 -124.145179749
-152.45 62.1 -124.114356995
-161.15 55.9 -124.102416992
-158.25 57.25 -124.088645935
-159.9 56.25 -124.068214417
-163.5 55.15 -124.065834045
-153.1 60.65 -124.061248779
-155.3 58.75 -124.054069519
-150.35 63.45 -124.033592224
-155.75 58.5 -124.025527954
-151.5 63 -124.024139404
-163.35 55.2 -124.01424408
-149.15 63.9 -124.014152527
-159.55 56.4 -123.993049622
-148.45 64.1 -123.973953247
-151.4 63.05 -123.969032288
-156.85 57.9 -123.961051941
-155 58.95 -123.958106995
-153 60.85 -123.957679749
-159.15 56.65 -123.941993713
-163.65 55.1 -123.932937622
-153.25 60.4 -123.889541626
-166.25 54.4 -123.880226135
-164.7 54.8 -123.871284485
-157.2 57.75 -123.866920471
-162.25 55.6 -123.861679077
-151.75 62.85 -123.848358154
-158.95 56.8 -123.847206116
-154.2 59.6 -123.845024109
-150.2 63.5 -123.828193665
-162.4 55.55 -123.82421875
-154.7 59.2 -123.813407898
-164.95 54.75 -123.812095642
-156.35 58.15 -123.796325684
-151.05 63.2 -123.792861938
-167.25 54 -123.765731812
-149.4 63.8 -123.756034851
-159.65 56.35 -123.738647461
-163.2 55.25 -123.733543396
-148.85 64 -123.731376648
-161.9 55.7 -123.709854126
-152.75 61.4 -123.701972961
-165.2 54.7 -123.695915222
-164.3 54.9 -123.695732117
-159.45 56.45 -123.69090271
-166.85 54.2 -123.671287537
-151.95 62.7 -123.670097351
-165.6 54.6 -123.668418884
-162.8 55.4 -123.665977478
-154.05 59.7 -123.665206909
-152.25 62.4 -123.656547546
-149.65 63.7 -123.649528503
-149 63.95 -123.649238586
-155.65 58.55 -123.635482788
-163.8 55.05 -123.635116577
-158.15 57.3 -123.624542236
-152.95 60.95 -123.613815308
-166.4 54.35 -123.599151611
-160.5 56.05 -123.586662292
-153.15 60.55 -123.581535339
-157.55 57.6 -123.566825867
-153.9 59.8 -123.561820984
-154.4 59.45 -123.553092957
-150.05 63.55 -123.540992737
-158.5 57.1 -123.540344238
-152.6 61.75 -123.503089905
-160.7 56 -123.469223022
-156 58.35 -123.440795898
-156.95 57.85 -123.434539795
-161.7 55.75 -123.409065247
-154.75 59.15 -123.383666992
-166.55 54.3 -123.375808716
-148.4 64.1 -123.32283783
-166.7 54.25 -123.302886963
-148.65 64.05 -123.287879944
-155.55 58.6 -123.287841797
-158.05 57.35 -123.247283936
-152.9 61.05 -123.199707031
-156.25 58.2 -123.197738647
-163.95 55 -123.195075989
-165.4 54.65 -123.18598175
-163.05 55.3 -123.185081482
-161.5 55.8 -123.143882751
-149.9 63.6 -123.143508911
-150.9 63.25 -123.124595642
-152 62.65 -123.122375488
-155.2 58.8 -123.112785339
-152.7 61.5 -123.112358093
-157.65 57.55 -123.111274719
-153.75 59.9 -123.102386475
-152.35 62.25 -123.099967957
-152.2 62.45 -123.096977234
-157.3 57.7 -123.079444885
-167.15 54.05 -123.04499054
-159.75 56.3 -123.023750305
-160.9 55.95 -123.017700195
-158.8 56.9 -123.014450073
-153.45 60.15 -123.002952576
-160.15 56.15 -122.978736877
-157.95 57.4 -122.969917297
-149.25 63.85 -122.959236145
-155.05 58.9 -122.94568634
-165.75 54.55 -122.942169189
-158.65 57 -122.924324036
-154.8 59.1 -122.916519165
-155.45 58.65 -122.902183533
-153.4 60.2 -122.90058136
-161.3 55.85 -122.867202759
-157.75 57.5 -122.864990234
-151.15 63.15 -122.851928711
-153.5 60.1 -122.851470947
-149.5 63.75 -122.838798523
-152.55 61.85 -122.838256836
-157.85 57.45 -122.828018188
-162.65 55.45 -122.825714111
-160.3 56.1 -122.820045471
-155.9 58.4 -122.806358337
-159.35 56.5 -122.791496277
-152.05 62.6 -122.787658691
-157.05 57.8 -122.784591675
-152.15 62.5 -122.770027161
-161.1 55.9 -122.767692566
-159 56.75 -122.764816284
-158.4 57.15 -122.76461792
-152.85 61.15 -122.761993408
-148.35 64.1 -122.76020813
-162.05 55.65 -122.756973267
-150.75 63.3 -122.756698608
-154.45 59.4 -122.742195129
-151.65 62.9 -122.730743408
-159.2 56.6 -122.708396912
-152.1 62.55 -122.668807983
-160 56.2 -122.66696167
-164.45 54.85 -122.66204071
-164.1 54.95 -122.647842407
-154.25 59.55 -122.633087158
-164.9 54.75 -122.613922119
-151.8 62.8 -122.603363037
-149.75 63.65 -122.598365784
-153.2 60.45 -122.595436096
-150.6 63.35 -122.57219696
-153.35 60.25 -122.535797119
-166.95 54.15 -122.530044556
-156.15 58.25 -122.509361267
-164.65 54.8 -122.509269714
-153.55 60.05 -122.462188721
-165.9 54.5 -122.461265564
-156.6 58 -122.460868835
-152.65 61.6 -122.456565857
-150.45 63.4 -122.452880859
-148.8 64 -122.445396423
-162.9 55.35 -122.406295776
-149.1 63.9 -122.38168335
-165.15 54.7 -122.379554749
-155.35 58.7 -122.378730774
-154.85 59.05 -122.377235413
-156.7 57.95 -122.361114502
-152.4 62.15 -122.358512878
-152.5 61.95 -122.344238281
-156.5 58.05 -122.342857361
-148.6 64.05 -122.321311951
-150.3 63.45 -122.316001892
-167.05 54.1 -122.315849304
-157.4 57.65 -122.313903809
-152.8 61.25 -122.309509277
-154.1 59.65 -122.304389954
-148.3 64.1 -122.281158447
-155.8 58.45 -122.273574829
-161.85 55.7 -122.249275208
-153.95 59.75 -122.211364746
-162.5 55.5 -122.208396912
-163.45 55.15 -122.175804138
-151.25 63.1 -122.173873901
-160.65 56 -122.173606873
-148.95 63.95 -122.169784546
-158.3 57.2 -122.156204224
-152.45 62.05 -122.14339447
-162.2 55.6 -122.139068604
-150.15 63.5 -122.121986389
-160.45 56.05 -122.095832825
-163.6 55.1 -122.094566345
-166.05 54.45 -122.094352722
-163.3 55.2 -122.06212616
-156.8 57.9 -122.059295654
-154.5 59.35 -122.057167053
-157.15 57.75 -122.045829773
-151.55 62.95 -122.032524109
-156.4 58.1 -122.012756348
-149.35 63.8 -122.000495911
-161.65 55.75 -121.992935181
-153.05 60.7 -121.987045288
-164.25 54.9 -121.977508545
-159.85 56.25 -121.961288452
-162.35 55.55 -121.954269409
-153.8 59.85 -121.940742493
-152.3 62.3 -121.925537109
-153.3 60.3 -121.908279419
-153 60.8 -121.905204773
-151 63.2 -121.901046753
-149.6 63.7 -121.895568848
-148.25 64.1 -121.880142212
-165.55 54.6 -121.875556946
-153.6 60 -121.857513428
-150 63.55 -121.844474792
-155.7 58.5 -121.841247559
-163.75 55.05 -121.841140747
-152.75 61.35 -121.825912476
-156.05 58.3 -121.802574158
-155.1 58.85 -121.797279358
-158.55 57.05 -121.795631409
-151.35 63.05 -121.788444519
-166.2 54.4 -121.775779724
-160.85 55.95 -121.76651001
-152.6 61.7 -121.764709473
-153.1 60.6 -121.755996704
-158.85 56.85 -121.751289368
-154.9 59 -121.737419128
-161.45 55.8 -121.731277466
-151.45 63 -121.729362488
-163.15 55.25 -121.707191467
-159.05 56.7 -121.700126648
-158.2 57.25 -121.665344238
-165.35 54.65 -121.636962891
-157.5 57.6 -121.636878967
-152.95 60.9 -121.628067017
-155.25 58.75 -121.614776611
-156.9 57.85 -121.583984375
-151.85 62.75 -121.569389343
-148.2 64.1 -121.551055908
-162.75 55.4 -121.53515625
-154.3 59.5 -121.533584595
-156.3 58.15 -121.5025177
-166.35 54.35 -121.492843628
-154.55 59.3 -121.482215881
-161.25 55.85 -121.481246948
-155.6 58.55 -121.47580719
-148.55 64.05 -121.453430176
-161.05 55.9 -121.453277588
-149.85 63.6 -121.444000244
-163.9 55 -121.431640625
-164.85 54.75 -121.414840698
-159.5 56.4 -121.404045105
-158.7 56.95 -121.400871277
-166.8 54.2 -121.399635315
-159.6 56.35 -121.343948364
-159.25 56.55 -121.337165833
-150.85 63.25 -121.320747375
-152.7 61.45 -121.288520813
-149.2 63.85 -121.275619507
-166.5 54.3 -121.27053833
-158.1 57.3 -121.262580872
-157.25 57.7 -121.259208679
-148.75 64 -121.254486084
-152.9 61 -121.252189636
-162 55.65 -121.214607239
-151.7 62.85 -121.211616516
-166.65 54.25 -121.176528931
-155.95 58.35 -121.140510559
-165.1 54.7 -121.118286133
-155.5 58.6 -121.113815308
-157.6 57.55 -121.112426758
-164.6 54.8 -121.109092712
-152.55 61.8 -121.10144043
-153.15 60.5 -121.094306946
-163 55.3 -121.08996582
-149.45 63.75 -121.087234497
-160.25 56.1 -121.071609497
-160.1 56.15 -121.069564819
-153.65 59.95 -121.064788818
-164.4 54.85 -121.052307129
-153.25 60.35 -121.026168823
-165.7 54.55 -121.025382996
-150.7 63.3 -121.012702942
-154.15 59.6 -121.005256653
-154.6 59.25 -120.993423462
-152.25 62.35 -120.991714478
-154.95 58.95 -120.977096558
-157 57.8 -120.969192505
-158 57.35 -120.94392395
-158.45 57.1 -120.932098389
-164.05 54.95 -120.901420593
-151.1 63.15 -120.898765564
-159.4 56.45 -120.889663696
-149.7 63.65 -120.882789612
-156.2 58.2 -120.867950439
-150.55 63.35 -120.859870911
-154 59.7 -120.856185913
-160.6 56 -120.840270996
-152.85 61.1 -120.83895874
-152.35 62.2 -120.834907532
-149.05 63.9 -120.819190979
-161.8 55.7 -120.813972473
-159.7 56.3 -120.785995483
-157.7 57.5 -120.784584045
-148.9 63.95 -120.774688721
-162.6 55.45 -120.760787964
-150.4 63.4 -120.754882812
-151.9 62.7 -120.74647522
-157.9 57.4 -120.731338501
-153.85 59.8 -120.698379517
-152.65 61.55 -120.687179565
-148.5 64.05 -120.682487488
-155.4 58.65 -120.668884277
-157.8 57.45 -120.664680481
-159.95 56.2 -120.645904541
-150.25 63.45 -120.629798889
-159.1 56.65 -120.612480164
-161.6 55.75 -120.585975647
-158.9 56.8 -120.577720642
-155.85 58.4 -120.565292358
-152.5 61.9 -120.561195374
-154.65 59.2 -120.560203552
-154.35 59.45 -120.557632446
-160.4 56.05 -120.542640686
-155.15 58.8 -120.525268555
-160.8 55.95 -120.514907837
-157.35 57.65 -120.476844788
-162.15 55.6 -120.471603394
-165.85 54.5 -120.463951111
-150.1 63.5 -120.449546814
-152.8 61.2 -120.411399841
-156.55 58 -120.389976501
-156.65 57.95 -120.378547668
-161.4 55.8 -120.326400757
-152.4 62.1 -120.311195374
-152.2 62.4 -120.29283905
-149.3 63.8 -120.288551331
-162.85 55.35 -120.279159546
-163.4 55.15 -120.277481079
-158.35 57.15 -120.267532349
-164.2 54.9 -120.262046814
-152.45 62 -120.257766724
-162.45 55.5 -120.255935669
-157.1 57.75 -120.251487732
-163.55 55.1 -120.251319885
-151.6 62.9 -120.245651245
-164.8 54.75 -120.204185486
-156.45 58.05 -120.182701111
-149.95 63.55 -120.178916931
-156.1 58.25 -120.178604126
-149.55 63.7 -120.166526794
-165.3 54.65 -120.164840698
-148.7 64 -120.16040802
-161 55.9 -120.157821655
-165.5 54.6 -120.157661438
-156.75 57.9 -120.154098511
-154.7 59.15 -120.147529602
-151.2 63.1 -120.146522522
-162.3 55.55 -120.14151001
-151.95 62.65 -120.134750366
-158.6 57 -120.133750916
-153.7 59.9 -120.114746094
-161.2 55.85 -120.111732483
-163.25 55.2 -120.098197937
-155.75 58.45 -120.090309143
-155 58.9 -120.08581543
-150.95 63.2 -120.05405426
-166 54.45 -120.049346924
-163.7 55.05 -120.047271729
-155.3 58.7 -120.043800354
-152.6 61.65 -120.038246155
-148.45 64.05 -120.005828857
-166.9 54.15 -119.987937927
-158.75 56.9 -119.98059845
-152.75 61.3 -119.962478638
-153.2 60.4 -119.905639648
-151.75 62.8 -119.903076172
-165.05 54.7 -119.902389526
-153 60.75 -119.846893311
-159.8 56.25 -119.840187073
-152.15 62.45 -119.822814941
-153.05 60.65 -119.808555603
-167.2 54 -119.807670593
-159.3 56.5 -119.792602539
-154.2 59.55 -119.789634705
-156.35 58.1 -119.775535583
-149.8 63.6 -119.769630432
-157.45 57.6 -119.761512756
-158.25 57.2 -119.743865967
-156.85 57.85 -119.739982605
-152 62.6 -119.734786987
-154.75 59.1 -119.718887329
-161.95 55.65 -119.713699341
-154.4 59.4 -119.709716797
-166.15 54.4 -119.704902649
-155.65 58.5 -119.697624207
-151.5 62.95 -119.687088013
-163.85 55 -119.67653656
-151.3 63.05 -119.672264099
-164.55 54.8 -119.670303345
-163.1 55.25 -119.669631958
-149.15 63.85 -119.650970459
-152.95 60.85 -119.650344849
-152.1 62.5 -119.576011658
-150.8 63.25 -119.555267334
-152.05 62.55 -119.547798157
-152.3 62.25 -119.544746399
-154.05 59.65 -119.524734497
-153.4 60.15 -119.512527466
-151.4 63 -119.507461548
-156 58.3 -119.503005981
-158.95 56.75 -119.473228455
-157.2 57.7 -119.471954346
-152.7 61.4 -119.471420288
-153.45 60.1 -119.471382141
-148.85 63.95 -119.467582703
-160.55 56 -119.461654663
-159.15 56.6 -119.457740784
-167.1 54.05 -119.448738098
-162.7 55.4 -119.433792114
-164.35 54.85 -119.422821045
-148.4 64.05 -119.419937134
-153.1 60.55 -119.418968201
-166.3 54.35 -119.410888672
-153.9 59.75 -119.408164978
-161.75 55.7 -119.399436951
-152.55 61.75 -119.390808105
-149.4 63.75 -119.369674683
-155.55 58.55 -119.339576721
-149 63.9 -119.331207275
-152.9 60.95 -119.32258606
-158.15 57.25 -119.319152832
-167 54.1 -119.311180115
-153.35 60.2 -119.304847717
-150.65 63.3 -119.300491333
-160.2 56.1 -119.273010254
-160.75 55.95 -119.254875183
-154.8 59.05 -119.239379883
-156.25 58.15 -119.213165283
-166.75 54.2 -119.208282471
-153.5 60.05 -119.193778992
-149.65 63.65 -119.189506531
-161.55 55.75 -119.186424255
-166.45 54.3 -119.183929443
-157.55 57.55 -119.177398682
-150.5 63.35 -119.175712585
-165.65 54.55 -119.173522949
-156.95 57.8 -119.16934967
-164 54.95 -119.168861389
-158.5 57.05 -119.164512634
-148.65 64 -119.164093018
-155.2 58.75 -119.147605896
-160.05 56.15 -119.132507324
-150.35 63.4 -119.08644104
-166.6 54.25 -119.074668884
-155.05 58.85 -119.062576294
-153.75 59.85 -119.039978027
-151.05 63.15 -118.995254517
-162.95 55.3 -118.993637085
-154.45 59.35 -118.986785889
-150.2 63.45 -118.976737976
-158.05 57.3 -118.973426819
-164.75 54.75 -118.972663879
-155.45 58.6 -118.943862915
-152.85 61.05 -118.937911987
-161.35 55.8 -118.930717468
-160.35 56.05 -118.928207397
-152.65 61.5 -118.922409058
-148.35 64.05 -118.920562744
-159.55 56.35 -118.908958435
-155.9 58.35 -118.894104004
-160.95 55.9 -118.878677368
-162.1 55.6 -118.85748291
-153.3 60.25 -118.843544006
-152.5 61.85 -118.825050354
-150.05 63.5 -118.810661316
-151.8 62.75 -118.805740356
-157.65 57.5 -118.774513245
-159.45 56.4 -118.768424988
-165.25 54.65 -118.765899658
-161.15 55.85 -118.760192871
-162.55 55.45 -118.741218567
-165 54.7 -118.721199036
-157.95 57.35 -118.71244812
-153.55 60 -118.698776245
-152.35 62.15 -118.696296692
-157.3 57.65 -118.680213928
-154.85 59 -118.678749084
-154.25 59.5 -118.675300598
-151.65 62.85 -118.666183472
-158.8 56.85 -118.66318512
-149.25 63.8 -118.624542236
-159.9 56.2 -118.612358093
-157.75 57.45 -118.574378967
-153.15 60.45 -118.570037842
-157.85 57.4 -118.565544128
-158.65 56.95 -118.563117981
-156.15 58.2 -118.559783936
-164.15 54.9 -118.553604126
-149.9 63.55 -118.542221069
-152.8 61.15 -118.533691406
-165.8 54.5 -118.521484375
-159.65 56.3 -118.520698547
-165.45 54.6 -118.515441895
-148.3 64.05 -118.502792358
-152.25 62.3 -118.486228943
-157.05 57.75 -118.480056763
-149.5 63.7 -118.464035034
-152.45 61.95 -118.444343567
-158.4 57.1 -118.428192139
-155.35 58.65 -118.422477722
-159 56.7 -118.408622742
-163.5 55.1 -118.401573181
-162.25 55.55 -118.38633728
-156.6 57.95 -118.380615234
-155.8 58.4 -118.378967285
-154.5 59.3 -118.377685547
-163.35 55.15 -118.369918823
-152.4 62.05 -118.363502502
-162.4 55.5 -118.358161926
-152.6 61.6 -118.320266724
-156.5 58 -118.301467896
-148.6 64 -118.265571594
-148.8 63.95 -118.251541138
-150.9 63.2 -118.250724792
-163.65 55.05 -118.250366211
-161.9 55.65 -118.249885559
-154.1 59.6 -118.242553711
-156.7 57.9 -118.240623474
-164.5 54.8 -118.194618225
-159.2 56.55 -118.191864014
-151.15 63.1 -118.174163818
-162.8 55.35 -118.168861389
-148.25 64.05 -118.161125183
-153.25 60.3 -118.131912231
-163.2 55.2 -118.122749329
-149.75 63.6 -118.118354797
-152.75 61.25 -118.114105225
-153.95 59.7 -118.101097107
-149.1 63.85 -118.090003967
-165.95 54.45 -118.050559998
-159.35 56.45 -118.04800415
-160.5 56 -118.03188324
-154.9 58.95 -118.01373291
-153.6 59.95 -118.010818481
-156.4 58.05 -118.009246826
-161.7 55.7 -118.001525879
-160.7 55.95 -117.977874756
-155.7 58.45 -117.95425415
-157.4 57.6 -117.935554504
-163.8 55 -117.92552948
-148.95 63.9 -117.922050476
-151.85 62.7 -117.919807434
-155.1 58.8 -117.914627075
-156.8 57.85 -117.897117615
-148.2 64.05 -117.889541626
-167.3 53.95 -117.888755798
-156.05 58.25 -117.886054993
-153.8 59.8 -117.873573303
-154.55 59.25 -117.863296509
-158.3 57.15 -117.86125946
-151.55 62.9 -117.846000671
-150.75 63.25 -117.826911926
-161.5 55.75 -117.793373108
-164.3 54.85 -117.780326843
-153 60.7 -117.776657104
-157.15 57.7 -117.71408844
-164.7 54.75 -117.712692261
-159.75 56.25 -117.703666687
-152.55 61.7 -117.699539185
-149.35 63.75 -117.689704895
-155.25 58.7 -117.685050964
-154.3 59.45 -117.675170898
-152.95 60.8 -117.6746521
-166.1 54.4 -117.671775818
-152.7 61.35 -117.663269043
-152.2 62.35 -117.655677795
-163.05 55.25 -117.624015808
-150.6 63.3 -117.619499207
-151.25 63.05 -117.617652893
-166.85 54.15 -117.615982056
-160.9 55.9 -117.611846924
-153.05 60.6 -117.605125427
-155.6 58.5 -117.58682251
-164.95 54.7 -117.563415527
-161.3 55.8 -117.546012878
-156.3 58.1 -117.535980225
-150.45 63.35 -117.520706177
-149.6 63.65 -117.518447876
-158.55 57 -117.470756531
-148.55 64 -117.463935852
-150.3 63.4 -117.449523926
-163.95 54.95 -117.447891235
-158.85 56.8 -117.441764832
-165.2 54.65 -117.435028076
-160.15 56.1 -117.433372498
-161.1 55.85 -117.427482605
-151.45 62.95 -117.419425964
-154.6 59.2 -117.417503357
-158.2 57.2 -117.411941528
-152.9 60.9 -117.406455994
-165.6 54.55 -117.388404846
-156.9 57.8 -117.380058289
-162.65 55.4 -117.36806488
-150.15 63.45 -117.357902527
-166.25 54.35 -117.357879639
-151.35 63 -117.35496521
-159.05 56.65 -117.347076416
-152.3 62.2 -117.302261353
-157.5 57.55 -117.301048279
-151.7 62.8 -117.296134949
-162.05 55.6 -117.294212341
-160.3 56.05 -117.256202698
-155.95 58.3 -117.253791809
-151.9 62.65 -117.245155334
-154.95 58.9 -117.22958374
-155.5 58.55 -117.217933655
-150 63.5 -117.204246521
-153.2 60.35 -117.181259155
-160 56.15 -117.176231384
-152.65 61.45 -117.162857056
-153.65 59.9 -117.158340454
-151 63.15 -117.140167236
-148.75 63.95 -117.128990173
-152.5 61.8 -117.125915527
-166.4 54.3 -117.119544983
-158.7 56.9 -117.090179443
-166.7 54.2 -117.07131958
-152.85 61 -117.056793213
-152.15 62.4 -117.048614502
-153.1 60.5 -117.048362732
-158.1 57.25 -117.046607971
-154.15 59.55 -117.031936646
-149.2 63.8 -117.013023376
-154.65 59.15 -117.008903503
-166.55 54.25 -116.995079041
-165.4 54.6 -116.948867798
-156.2 58.15 -116.937232971
-149.85 63.55 -116.931968689
-157.25 57.65 -116.919929504
-162.9 55.3 -116.902252197
-164.1 54.9 -116.854812622
-157.6 57.5 -116.830551147
-161.85 55.65 -116.818466187
-154 59.65 -116.805725098
-154.35 59.4 -116.796325684
-149.45 63.7 -116.790458679
-151.95 62.6 -116.781593323
-159.25 56.5 -116.774703979
-162.5 55.45 -116.77091217
-155.4 58.6 -116.770324707
-148.5 64 -116.757354736
-158 57.3 -116.754821777
-157 57.75 -116.727355957
-155.85 58.35 -116.702964783
-152.45 61.9 -116.690917969
-162.2 55.55 -116.688545227
-164.45 54.8 -116.685646057
-152.8 61.1 -116.676681519
-160.65 55.95 -116.675361633
-152.35 62.1 -116.670829773
-152.1 62.45 -116.660705566
-155.15 58.75 -116.655548096
-153.85 59.75 -116.647956848
-158.45 57.05 -116.645454407
-165.75 54.5 -116.635803223
-161.65 55.7 -116.616607666
-152.6 61.55 -116.60874176
-166.95 54.1 -116.604957581
-154.7 59.1 -116.60333252
-149.05 63.85 -116.597366333
-148.9 63.9 -116.595703125
-159.85 56.2 -116.569335938
-157.7 57.45 -116.554252625
-157.9 57.35 -116.551277161
-160.45 56 -116.547225952
-163.45 55.1 -116.544334412
-152 62.55 -116.529151917
-162.35 55.5 -116.516868591
-152.4 62 -116.502006531
-150.85 63.2 -116.489860535
-149.7 63.6 -116.488563538
-152.05 62.5 -116.488388062
-157.8 57.4 -116.470741272
-163.3 55.15 -116.45274353
-163.6 55.05 -116.448127747
-159.5 56.35 -116.430519104
-164.65 54.75 -116.418746948
-164.9 54.7 -116.417572021
-161.45 55.75 -116.406692505
-156.55 57.95 -116.366073608
-160.85 55.9 -116.352043152
-167.15 54 -116.33455658
-155 58.85 -116.320465088
-156.65 57.9 -116.315116882
-158.9 56.75 -116.301483154
-167.05 54.05 -116.292160034
-152.75 61.2 -116.282707214
-156.1 58.2 -116.282157898
-151.1 63.1 -116.255111694
-159.1 56.6 -116.246337891
-155.75 58.4 -116.24445343
-159.6 56.3 -116.223136902
-151.6 62.85 -116.209526062
-156.45 58 -116.19744873
-163.75 55 -116.174674988
-161.25 55.8 -116.174232483
-153.7 59.85 -116.172233582
-154.75 59.05 -116.166740417
-165.15 54.65 -116.165718079
-155.3 58.65 -116.158561707
-157.35 57.6 -116.154205322
-148.45 64 -116.143127441
-163.15 55.2 -116.137046814
-151.75 62.75 -116.136810303
-150.7 63.25 -116.134529114
-164.25 54.85 -116.131202698
-153.4 60.1 -116.131111145
-152.25 62.25 -116.12953186
-161.05 55.85 -116.113578796
-148.7 63.95 -116.101608276
-165.9 54.45 -116.100379944
-159.4 56.4 -116.087532043
-162.75 55.35 -116.082389832
-153.35 60.15 -116.067863464
-149.3 63.75 -116.051376343
-156.75 57.85 -116.050376892
-154.4 59.35 -116.039085388
-152.55 61.65 -116.02243042
-158.35 57.1 -116.02154541
-153.15 60.4 -116.010284424
-157.1 57.7 -115.981941223
-150.55 63.3 -115.969573975
-153.45 60.05 -115.960792542
-154.2 59.5 -115.911453247
-150.4 63.35 -115.896224976
-149.55 63.65 -115.870323181
-152.7 61.3 -115.866371155
-158.6 56.95 -115.859634399
-155.65 58.45 -115.858955383
-150.25 63.4 -115.845909119
-156.35 58.05 -115.828018188
-162 55.6 -115.778625488
-150.1 63.45 -115.773574829
-153.3 60.2 -115.762252808
-163.9 54.95 -115.735275269
-158.75 56.85 -115.717796326
-152.95 60.75 -115.695091248
-153 60.65 -115.689186096
-166.05 54.4 -115.679855347
-165.55 54.55 -115.671592712
-154.8 59 -115.66809845
-156 58.25 -115.638626099
-149.95 63.5 -115.628456116
-151.2 63.05 -115.622177124
-148.4 64 -115.617713928
-156.85 57.8 -115.596252441
-163 55.25 -115.574645996
-153.5 60 -115.572570801
-160.1 56.1 -115.562271118
-159.7 56.25 -115.548545837
-154.05 59.6 -115.547828674
-158.25 57.15 -115.53993988
-160.25 56.05 -115.532524109
-151.5 62.9 -115.528518677
-155.55 58.5 -115.500465393
-152.9 60.85 -115.498786926
-157.45 57.55 -115.478279114
-149.15 63.8 -115.45866394
-165.35 54.6 -115.456993103
-152.5 61.75 -115.455383301
-161.8 55.65 -115.414634705
-152.65 61.4 -115.409866333
-154.45 59.3 -115.396331787
-153.9 59.7 -115.393997192
-153.05 60.55 -115.373512268
-166.8 54.15 -115.363265991
-148.85 63.9 -115.355712891
-149.8 63.55 -115.345649719
-162.6 55.4 -115.343437195
-160.6 55.95 -115.339317322
-166.2 54.35 -115.33807373
-150.95 63.15 -115.332351685
-155.2 58.7 -115.302742004
-156.25 58.1 -115.30216217
-155.05 58.8 -115.288825989
-164.85 54.7 -115.272453308
-151.3 63 -115.268722534
-161.6 55.7 -115.241752625
-151.4 62.95 -115.226036072
-158.95 56.7 -115.218742371
-153.25 60.25 -115.21307373
-159.95 56.15 -115.207778931
-152.85 60.95 -115.192573547
-157.2 57.65 -115.192176819
-151.8 62.7 -115.188812256
-152.3 62.15 -115.185470581
-149 63.85 -115.17755127
-148.35 64 -115.176872253
-152.2 62.3 -115.176353455
-159.3 56.45 -115.173423767
-148.65 63.95 -115.17023468
-164.05 54.9 -115.166572571
-158.15 57.2 -115.155929565
-149.4 63.7 -115.148826599
-164.4 54.8 -115.1484375
-155.45 58.55 -115.102600098
-160.8 55.9 -115.092857361
-164.6 54.75 -115.087547302
-153.75 59.8 -115.084465027
-154.85 58.95 -115.081893921
-166.35 54.3 -115.081130981
-159.15 56.55 -115.061958313
-155.9 58.3 -115.058303833
-162.15 55.55 -115.047302246
-167.25 53.95 -115.043754578
-161.4 55.75 -115.026939392
-160.4 56 -115.006355286
-156.95 57.75 -114.988929749
-153.55 59.95 -114.987937927
-152.45 61.85 -114.986427307
-166.65 54.2 -114.974098206
-165.1 54.65 -114.95009613
-157.55 57.5 -114.948150635
-166.5 54.25 -114.938690186
-158.5 57 -114.927604675
-152.6 61.5 -114.902870178
-154.25 59.45 -114.895324707
-149.65 63.6 -114.879249573
-154.5 59.25 -114.853363037
-162.45 55.45 -114.853057861
-158.05 57.25 -114.844573975
-152.8 61.05 -114.839698792
-162.85 55.3 -114.822525024
-161 55.85 -114.817382812
-161.2 55.8 -114.817192078
-148.3 64 -114.815734863
-165.7 54.5 -114.808601379
-151.65 62.8 -114.780471802
-150.8 63.2 -114.770210266
-152.35 62.05 -114.745162964
-162.3 55.5 -114.733268738
-152.4 61.95 -114.713928223
-156.15 58.15 -114.683700562
-163.4 55.1 -114.679214478
-153.1 60.45 -114.643936157
-163.55 55.05 -114.639137268
-157.95 57.3 -114.604675293
-157.65 57.45 -114.600906372
-155.35 58.6 -114.587120056
-155.8 58.35 -114.566223145
-148.25 64 -114.528884888
-163.25 55.15 -114.526252747
-159.8 56.2 -114.517372131
-164.2 54.85 -114.480957031
-150.65 63.25 -114.477172852
-152.75 61.15 -114.469512939
-149.25 63.75 -114.459014893
-157.85 57.35 -114.45866394
-151.85 62.65 -114.452095032
-157.75 57.4 -114.444664001
-158.8 56.8 -114.44342804
-152.15 62.35 -114.439872742
-153.2 60.3 -114.426940918
-163.7 55 -114.420654297
-157.3 57.6 -114.413032532
-154.9 58.9 -114.390007019
-154.55 59.2 -114.388404846
-151.05 63.1 -114.387954712
-156.6 57.9 -114.375205994
-152.55 61.6 -114.355773926
-150.5 63.3 -114.351036072
-154.1 59.55 -114.350059509
-158.65 56.9 -114.338790894
-156.5 57.95 -114.335411072
-148.6 63.95 -114.334815979
-161.95 55.6 -114.306938171
-150.35 63.35 -114.303863525
-150.2 63.4 -114.276924133
-157.05 57.7 -114.271682739
-149.5 63.65 -114.246681213
-153.6 59.9 -114.232841492
-158.4 57.05 -114.230789185
-150.05 63.45 -114.223144531
-148.8 63.9 -114.205101013
-165.85 54.45 -114.200622559
-156.7 57.85 -114.195549011
-159 56.65 -114.161552429
-155.7 58.4 -114.156974792
-155.1 58.75 -114.143882751
-163.1 55.2 -114.143409729
-153.95 59.65 -114.140357971
-164.8 54.7 -114.117576599
-166.9 54.1 -114.113441467
-152.7 61.25 -114.082855225
-156.4 58 -114.081764221
-149.9 63.5 -114.080856323
-156.05 58.2 -114.043037415
-165.3 54.6 -114.037811279
-161.75 55.65 -114.033638
-163.85 54.95 -114.02722168
-162.7 55.35 -114.026382446
-165.5 54.55 -114.02431488
-154.3 59.4 -113.992584229
-154.6 59.15 -113.973930359
-149.1 63.8 -113.966156006
-160.55 55.95 -113.962791443
-153.8 59.75 -113.926856995
-151.9 62.6 -113.926109314
-152.1 62.4 -113.917045593
-152.25 62.2 -113.909912109
-159.45 56.35 -113.906959534
-159.55 56.3 -113.88861084
-155.25 58.65 -113.874961853
-161.55 55.7 -113.874786377
-151.55 62.85 -113.838752747
-148.95 63.85 -113.834838867
-160.75 55.9 -113.827026367
-156.8 57.8 -113.813041687
-152.5 61.7 -113.806610107
-155.6 58.45 -113.796936035
-149.75 63.55 -113.780937195
-165.05 54.65 -113.779067993
-160.2 56.05 -113.764816284
-159.2 56.5 -113.751052856
-166 54.4 -113.731864929
-164.55 54.75 -113.718055725
-152.95 60.7 -113.706115723
-158.3 57.1 -113.705421448
-157.4 57.55 -113.704200745
-151.15 63.05 -113.683799744
-160.05 56.1 -113.668952942
-152.65 61.35 -113.665184021
-161.35 55.75 -113.655273438
-156.3 58.05 -113.645820618
-151.95 62.55 -113.610054016
-152.05 62.45 -113.605354309
-148.55 63.95 -113.59438324
-152.9 60.8 -113.594276428
-164.35 54.8 -113.58896637
-154.95 58.85 -113.582473755
-153 60.6 -113.580184937
-154.65 59.1 -113.578689575
-150.9 63.15 -113.570678711
-151.7 62.75 -113.560920715
-149.35 63.7 -113.542709351
-160.95 55.85 -113.536636353
-162.95 55.25 -113.526824951
-152 62.5 -113.503211975
-157.15 57.65 -113.493278503
-164 54.9 -113.488220215
-161.15 55.8 -113.476356506
-162.1 55.55 -113.461090088
-167 54.05 -113.457130432
-155.95 58.25 -113.441452026
-155.5 58.5 -113.430183411
-153.15 60.35 -113.417945862
-160.35 56 -113.410438538
-159.65 56.25 -113.370231628
-159.35 56.4 -113.365188599
-162.55 55.4 -113.364555359
-166.15 54.35 -113.355255127
-152.85 60.9 -113.341445923
-153.65 59.85 -113.336303711
-152.45 61.8 -113.321151733
-158.2 57.15 -113.298095703
-149.6 63.6 -113.290168762
-151.45 62.9 -113.289848328
-158.55 56.95 -113.283279419
-156.9 57.75 -113.260116577
-158.85 56.75 -113.25743103
-151.25 63 -113.245956421
-159.9 56.15 -113.232078552
-154.15 59.5 -113.231567383
-167.1 54 -113.223724365
-154.35 59.35 -113.206230164
-152.6 61.45 -113.202804565
-166.75 54.15 -113.19392395
-152.3 62.1 -113.181343079
-154.7 59.05 -113.170257568
-148.75 63.9 -113.146194458
-157.5 57.5 -113.12260437
-153.05 60.5 -113.111869812
-151.35 62.95 -113.103607178
-159.05 56.6 -113.091011047
-150.75 63.2 -113.090560913
-156.2 58.1 -113.082633972
-166.3 54.3 -113.072502136
-165.65 54.5 -113.041473389
-152.8 61 -113.021087646
-162.25 55.5 -113.007980347
-162.4 55.45 -112.990135193
-152.4 61.9 -112.987373352
-155.4 58.55 -112.986373901
-158.1 57.2 -112.971740723
-148.5 63.95 -112.94707489
-164.75 54.7 -112.943664551
-155.85 58.3 -112.917747498
-149.2 63.75 -112.917167664
-158.7 56.85 -112.913345337
-154 59.6 -112.913032532
-166.6 54.2 -112.909225464
-166.45 54.25 -112.907852173
-152.35 62 -112.906227112
-155.15 58.7 -112.899482727
-161.9 55.6 -112.874801636
-150.6 63.25 -112.8542099
-152.2 62.25 -112.844299316
-164.15 54.85 -112.833808899
-153.35 60.1 -112.833724976
-163.5 55.05 -112.822776794
-163.35 55.1 -112.806343079
-153.4 60.05 -112.765693665
-150.45 63.3 -112.764633179
-162.8 55.3 -112.761352539
-150.3 63.35 -112.74521637
-150.15 63.4 -112.743247986
-153.85 59.7 -112.730056763
-154.75 59 -112.717773438
-157.6 57.45 -112.710533142
